# 3D point list with one line of data per point:
#   POINT3D_ID, X, Y, Z, R, G, B, ERROR, TRACK[] as (IMAGE_ID, POINT2D_IDX)
# Number of points: 345, mean track length: 6.5183281368500881
4905 -0.12723623854563165 2.5392648981748294 1.6972763061386702 92 141 68 0.19034306703783627 44 1037 64 1008 100 994 73 946
6028 0.31297793193336282 1.2332440649953411 1.4754872193286184 155 162 182 1.5368179096961374 39 1574 73 1492 81 1560
3528 0.033266625208708746 1.1190406212770867 1.377620509224406 252 245 210 0.096500582097194837 71 1015 56 1252 25 1213 97 1273
6737 -0.34810922997913546 1.4645030760584608 1.5512638955627098 201 200 210 0.86028424696335948 81 1532 98 1491 19 1537
5244 0.50935944866336691 2.0666288549995695 1.3802659804504278 161 160 167 2.7950938452657597 64 488 100 1591
6400 0.17464897068631693 2.561326005885328 1.6438281869483364 61 100 54 0.18166530047898558 81 609 98 568 19 541 14 324 62 327 87 498 15 494
4907 0.61916050499674358 2.4766438541228171 1.8202122992922669 192 174 109 0.36823964580527385 44 1148 64 1016 100 969 39 1339 41 996 81 1374 19 1871 14 1232 62 1239
6050 -0.43581879910715426 2.7975067530589937 1.5665691166397919 212 223 120 1.0358613390958 41 1976 73 1769
6759 0.59371882438856804 2.4057899601025903 1.9302742818698448 67 105 55 0.18817885629333442 98 1744 19 1769 62 1636
5266 0.51949740976325864 1.6155444176487841 1.6408168114190138 59 107 57 0.14119139322627217 64 1834 100 1789 41 1773
6422 -0.38647301162202552 1.3894524630685348 1.4933474830796449 206 205 212 1.1072601846353467 44 820 98 708 31 549
4929 -0.42942674677745202 1.9681443884934673 1.5643087110605141 82 146 76 0.30696829761613681 44 715 64 1172 39 690 41 674 100 1997 81 767 98 626 19 726 14 662 62 636 15 625 87 1114 38 1047 84 610
5893 0.85209603201487716 2.7567891220441201 1.5488557923422568 47 35 25 0.17708818001096582 100 1838 41 2176 73 1289
3393 -0.3521183220732379 2.8159709734262974 1.4772469384852756 249 233 139 0.33472431627751237 65 641 92 391 70 413 89 606 49 374 82 455 71 452 56 563 25 856 97 555 59 376 55 370 68 329 54 377 24 367 36 316 42 336 10 626 72 421 95 394 23 400 94 219 11 281 96 287
9820 0.82087512151719955 2.2623737828634001 1.4068347411446744 178 161 144 0.7110203897020394 47 1026 69 428 83 574 78 579 9 322 9 876 46 359 84 976 53 247
6602 -0.28530230021558889 2.3476404113490839 2.0121438814175043 81 121 56 0.093531328426994118 39 1713 98 1626 19 1397 14 1315 62 1338 15 1414
5109 0.25994330302194479 2.0594775325560355 2.0054765835350237 150 143 145 2.1801622594252574 27 567 65 457 89 462 92 748 82 500 71 504 97 461 44 454 64 457 91 786 33 1478 27 1075 65 696 89 735 92 747 70 826 82 727 71 718 49 701 56 923 25 1234 97 639 85 775 44 789 64 777 85 739 100 452 100 703 39 676 39 745 41 437 41 721 73 486 73 735 81 634 81 640 98 1109 19 1343 14 1416 13 433 13 902 55 627 68 1078 54 586 54 589 24 629 87 582 87 606 15 857 15 1298 10 491 10 782 72 1135 95 993
6265 0.68536172908341686 1.8978389639106983 1.6814957464007525 73 110 40 0.15873656387827398 39 1668 81 1641 98 1048 19 941 14 1705
6064 0.30476064226963751 3.1062513943521828 1.2805174655869174 83 145 66 0.42484117161811563 33 1245 73 1924 13 1041 83 1508 47 1214
3564 -0.12616434790249195 1.7172400098255522 1.678268590378744 38 71 36 0.10993216364268049 27 1429 56 1576 25 1298 97 1519
9991 -0.58953947176770372 3.2803217421091206 1.6115388246046907 86 57 31 0.82061444914385528 97 1790 72 828 95 851 23 1216 96 938 52 597
6773 -0.47167548660717401 2.1002924261330072 1.4526819305632428 85 150 74 0.67266565629676112 39 1686 19 1901 14 1285 62 1309
5280 0.43451375939396558 2.6755165682871103 1.5592079140182564 113 153 82 0.11274569096449664 44 2171 100 1903 98 1813 19 1907
3589 -0.57306934773525797 3.1583458772783772 1.4930100181429224 67 42 18 0.20550662910057924 71 1823 56 1857 25 1741 97 1242
6798 0.61996203206669942 2.9879635645621114 1.3662559185301257 243 238 157 0.61678477965662803 91 1494 33 1269 27 1298 65 1316 85 1365 44 1310 64 994 100 892 39 1307 41 881 73 844 81 1325 19 1167 39 372 98 539 14 936 31 840 13 1052 83 1016 47 1015 38 848
5305 0.25216289067331066 3.274579173839574 1.3574227311054268 95 93 51 0.42210127990474533 27 1892 100 2065 73 1226 31 1742 13 1077 83 1316 47 1242
6094 0.15207125586188916 3.3519703390612019 1.4182074129868765 241 232 213 0.45168102436412144 100 2070 73 1865 44 2172 13 1088 83 1328 78 1470
6803 -0.0012410493535346713 2.7925177050060879 1.5335629643680906 209 205 120 1.0299207610174026 98 108 19 1213 14 1189 62 1679
5310 0.44244719396721166 2.5367713570922712 1.7058950361286205 65 112 54 0.86197970577405847 64 1297 100 2097 39 1348 41 1987 73 1775 81 1344 98 1291 19 1200 14 1228 13 1572 62 1194 78 705 47 968 47 1277 15 1080 38 1252
6106 -0.046523298239116419 1.1815548178574786 1.4385870260773088 46 34 21 0.70332185371192923 73 180 100 185 47 139 38 137 84 104
3606 -0.0048340300917341138 1.7863058848094253 1.7237783730771026 65 107 60 0.53672713141314532 91 730 89 679 70 1388 56 605 82 564 100 689 73 682
10033 -0.27040024527990042 1.9262293044705205 1.8878784655020304 41 72 32 0.9917245026236341 10 945 72 1142 96 723 95 989
6815 0.27284960553891757 3.3371343596783087 1.3743170520373196 0 0 0 0.98565879990709204 98 123 14 142
5322 0.1418243915400576 3.387834243951751 1.4548176586115373 66 50 33 0.93112936948823766 92 1427 70 1011 64 2101 100 563 73 883 13 789
6127 0.28701153172889754 2.4368284950226546 1.818129274837154 56 100 50 0.38009494562605672 41 301 81 280 98 278 39 288 19 337 14 488 62 508 15 489
3627 0.092269691569013795 3.2728346280438081 1.3550563444038335 184 175 176 0.58452262105851971 33 533 27 515 56 779 65 1298 89 596 92 1002 70 1550 82 1425 71 1275 49 1317 25 737 97 759 85 2236 44 596 64 1449 100 951 39 1309 41 890 73 638 31 711 13 685
10054 -0.58311509465595235 2.9142832235741825 1.5760226229474144 153 130 70 0.10589621646417165 10 1212 72 1213 95 1183 23 1149 96 916
6836 0.020199341920133573 1.1761760533622536 1.4170748244704856 94 99 49 0.7557959756226712 19 687 98 472 14 666 15 620
5343 -0.10232976777437973 3.2607737732395163 2.6569732669962196 126 145 82 0.72119988689882675 92 195 81 70
3964 -0.29739021394991128 1.6847822989614378 1.7458254820492123 118 121 82 1.0383624517511814 25 128 97 138 54 139 24 122 10 94 72 103 95 96 23 154 96 392
10391 -0.51255776272730158 2.0349135955109596 1.5520744026532449 153 137 72 0.41730129336650817 95 299 23 281 52 417 5 376 16 548 34 562
7173 -0.55239509271638465 2.9772960438174656 1.4239915163068526 121 182 90 0.48593410608676185 19 989 13 1772
5680 0.80046056048976066 2.8897993462813552 1.4957237909768388 65 116 64 0.092924641946428729 39 571 41 576 81 542 98 544 14 419 62 769
6128 -0.21378203899033887 2.2564357832660082 2.1655686834911765 68 100 45 0.67894530348513082 39 269 81 316 98 317 19 300 14 186 62 183
6837 0.049600718127885489 1.1318580472872655 1.3889101935145565 126 101 75 0.17023649114047779 19 686 14 667 62 632
5344 -0.30704837328864609 2.7569809597791433 1.5098765875143199 198 195 108 1.4612885632018739 100 170 39 131 41 126 73 198 81 113 98 116 19 96 14 101 13 271 62 103 15 117 87 95 38 167
6139 -0.47365793795581018 2.4132300806938001 2.19211449393439 125 135 71 1.7744113744410785 39 445 81 434 87 275
3639 -0.42307552405693688 1.561781300203881 1.7188214585116928 0 0 0 3.3479497345805727 92 1285 56 260
6848 0.7401013883508536 1.8367973302889224 1.7653291784956622 255 255 255 0.22821248589338314 19 652 14 944 62 854
5355 -0.19430978311096267 2.6137887798403225 2.3425330220948148 73 120 55 1.0868369036916654 92 1134 81 272
6149 0.79987162209136475 2.3099885031157408 1.3339767048244731 125 99 75 0.1124422790019825 39 622 81 529 98 829 19 781
3649 -0.59778079959921682 3.0538104681882903 1.628881792151663 182 158 124 0.23469531969019761 56 16 25 26 97 26
6858 -0.024354355379530394 1.1900505297223618 1.4211728757918367 135 117 81 0.71729002736601855 19 1545 14 1336 62 1397 15 1376
5365 0.46693418709458556 2.675909057363417 1.5616169826744806 62 117 61 0.29747385994755526 100 587 39 393 41 412 73 605 81 383 98 383 19 310 14 289 13 572 62 289 83 493 78 695 47 456 87 338 15 291 38 437 69 972 9 720
3986 -0.53328591490290222 2.2615316335022775 1.3492818032062703 234 213 175 0.40043775668235793 25 488 97 426 54 296 71 495 24 291 36 514 42 322
10413 -0.61981916560738515 2.8413231251541924 1.9220529146600389 194 144 85 0.33980435443743601 95 580 23 580 96 454
7195 0.73135530843737229 1.8975599475829272 1.9242454063742649 255 255 255 1.8213049352619319 19 677 13 412
5702 -0.25963966735848093 2.4663904267282497 1.8074034520260593 133 144 76 0.3522932337169265 39 721 41 703 98 687
6015 0.40430205875448183 2.8130746343683692 1.4334260185013441 167 184 104 0.034566754858526658 41 1299 73 1303
3515 -0.14346447512124108 3.288916454446158 1.4303894744255126 129 117 102 0.061145647675741314 89 1932 56 1131 25 1810 97 1746
9942 -0.57961859868741561 2.7096860535935612 1.8576575014924941 58 102 37 0.35043574264890215 10 586 72 579 95 810 23 539 96 428 52 435 5 616 26 488
6724 -0.44102864870505543 2.4910889669362946 1.851376833314009 78 114 54 0.079532855400415839 81 2052 19 1363 14 1473
5231 0.21383224249175745 1.0972107768157 1.3940609246843294 42 30 16 1.9399455320360948 85 1759 100 1413 73 1318 98 1347 41 1039 78 1104
6387 0.29905351203111824 2.3943423952493101 1.8570754031685621 52 97 51 0.25166340796770864 81 624 98 433 19 372
4894 0.57406388665019492 3.1366872513768431 1.3977426860917936 155 197 138 0.14820272320623951 44 603 64 957
6182 0.36976092405374494 2.9530328452259464 1.3794118145203036 222 224 138 0.10870331044750914 39 655 81 811
3682 -0.59062370451543844 2.958379269411509 1.6463738017772369 76 116 44 0.091404463938187394 56 276 25 254 97 276
6891 0.49657977327477631 1.3261465907033037 1.5291138255431518 84 88 64 1.0029046773889403 19 725 98 757 85 185 44 154 64 145 41 140 14 583 62 623
5398 0.70977943828934276 1.7081129812439793 1.7593963775665158 254 255 255 0.53331546844615785 100 657 39 695 73 465 91 719 81 638
6030 -0.42030085701683884 2.0302641275981079 1.5042587909548919 92 165 89 0.055924334003197525 100 1161 73 1546
3530 0.22337761726352195 3.3945972356514078 1.4630445438201003 241 211 181 0.23891619270155959 65 1892 56 1256 97 1112
9957 -0.4528471479758821 2.5050340141002283 1.836973411841992 162 167 91 0.12652385337127273 10 718 72 630 95 645
6739 0.11914133836551877 1.0884692781053074 1.4040996065020817 27 13 5 0.1371378175046086 39 1669 19 1548
5246 0.013457730013100253 2.110319830088434 2.0333187076076324 68 63 30 1.0798222617418476 65 1582 100 1597 13 1409 46 798
5995 0.40350134986801095 1.4730336525071821 1.5431103705703864 183 182 131 0.38872878569498942 64 1688 73 1097
4279 0.74332045862984319 2.8672606857965199 1.4800926893134312 72 120 65 0.81250829451523787 91 1957 85 1471 44 2053 64 1403 100 1372 39 1238 41 1341 73 740 81 1307 14 764 13 761 62 1174 83 670 78 636 47 605 15 744 9 457
7488 -0.12509374069124013 2.3936688112866964 1.8950370893837147 185 167 101 0.20517852880668819 49 1474 59 1235 55 1225 68 1254
6197 0.0079396539124078121 1.1924902488542199 1.4379306001592056 136 113 77 1.3084113413037401 39 1413 81 1023 98 1441
3697 -0.10650504512536819 2.9640643551568187 1.3366811336117128 255 255 163 0.45959462757664477 71 315 25 397 97 386
10124 -0.10294061743322296 2.6725065165395949 1.5550518095682737 255 255 170 0.24006870849203996 72 212 95 143 23 137
6906 -0.42657459367236827 2.1689672283410024 1.3949904238274371 0 0 0 0.41893692883336264 33 4 100 6
6213 0.22065905828935475 2.2684856248055079 2.0608114300924911 142 138 82 0.26633149827169794 39 1656 81 1147 19 1063 14 983 62 1438
3713 0.0052068400545558701 3.1615041088359708 1.288188922405638 53 95 47 0.43332807704100318 56 395 25 497 97 582 70 1539 71 449
6922 -0.45422532588295322 3.1616794632344596 1.4760277901549894 214 211 222 0.025728711779576512 27 319 33 333 31 360
5429 0.044997800254414931 2.6918167024357147 1.5173708778998336 72 116 58 0.54981824517705924 100 1340 39 1014 41 1456 73 1774 81 975 98 955 19 904 14 859 13 1559
5876 0.13206879981270486 3.2676414848582271 1.3388764959415997 110 91 56 0.27301123506233682 39 2131 41 2059 81 2020
4160 -0.41479540877233934 2.2111157657634131 2.1284647222936934 93 82 47 0.039505397098957645 71 25 97 36
10587 0.85469695464061124 2.9755735204217335 1.4920367586154639 206 201 148 0.21590244514969853 69 1023 9 1115 46 890 53 823
7369 0.37637695105830643 2.3307244693438269 1.9871891515324649 140 138 95 0.44545708443926885 49 499 59 358 55 336 68 317 54 1385 36 286 42 359 11 321
6585 0.43141623855079836 1.4461709504725917 1.535194707363202 175 185 128 1.1505582096504787 33 1400 65 2124 89 1587 92 1703 70 1824 44 1499 39 1480 41 1221 98 1071 65 1785 85 2262 64 1697
6248 0.37576321920994632 1.3523633874242966 1.4992301565884145 206 203 148 0.44747127658315444 100 1576 81 1470 83 1245 78 1127
6216 0.51192212345706756 2.3455643215454391 1.9939312379402776 78 114 63 0.10695726831987444 41 1431 81 1209 98 1028 19 955 14 947 62 1204
3716 -0.54284484105311659 2.688710975541261 1.6112464503211799 185 138 90 0.19958534978621878 25 511 97 894
10143 -0.5936432482300853 2.8547942373612289 1.5899511125952646 81 98 45 0.31144576003013458 10 186 72 283 95 244 23 259 96 207
6925 0.26836090346624514 3.3775721784884984 1.4564691044160671 204 212 229 1.2665483992058766 33 549 44 1355 65 1905 31 480 78 1029
5432 0.64972461624090005 2.4666527389746364 1.8691479263134594 64 119 59 0.18906848210713173 100 1114 39 1045
6251 0.11491699631889538 1.1537139354285064 1.3963507962247834 182 183 194 0.36235805134380533 39 1412 81 1529 87 1250
3721 -0.54048744601639254 3.6604833432938593 1.9281546808978014 221 225 241 0.45481223992253805 71 875 25 544
10148 -0.44833249477847453 2.5876644123089085 1.7338599695357588 218 193 121 0.49920920976727035 72 268 95 268 23 176 96 195
6930 0.064849550694791605 1.9175594873599229 1.8338052327562491 150 153 111 0.091256938581594907 73 662 31 621
5437 -0.52020139294592727 3.107750214039938 2.6460931271015862 110 142 71 0.30577407455893318 92 2041 81 1082
5884 0.14157618840651232 2.4625043740674939 1.7643940066838031 93 127 64 0.11475556575027346 39 2031 41 2108 81 1950 98 1896 19 1779 14 1747 62 1272 87 1336 15 1289
4168 0.64747612652587505 1.39180554415345 1.5339752535676592 225 229 243 1.1395035361622436 49 827 65 1480 89 1045 71 1137 56 1024 25 1253 97 1023
7377 -0.18674068817937489 2.4762809578462344 1.7867232964995166 56 96 44 0.19210758532926661 49 662 59 435 55 387 68 346
3384 -0.13286220931557954 2.842371453695967 1.4128979534516328 64 106 53 0.19497350176114367 82 1908 49 2111 59 1875 55 1747 54 1540
9811 0.80067195424035931 2.5350600752006129 1.5246164116909333 215 203 198 0.22062399148678055 13 1600 78 971 69 1186
6593 -0.11015674173990468 2.1451572953805162 2.0717533564324007 224 205 118 0.89935753665610485 39 706 98 661 19 704 81 1210
5100 0.088970265044535951 2.6092232930238395 1.595851773559845 230 213 125 1.369241080249491 44 2087 64 2232 100 2006 39 2013 41 1350 98 1326 19 1773 19 1796 98 1806 13 1760 62 1663
6256 0.099813363710839348 1.392413042781292 1.4880511863764847 70 135 73 0.42167007430174386 39 1502 81 1564 98 1086 19 1152
6232 0.75194812940882871 2.1807649814224233 1.3974003842978939 255 244 204 0.15604484559472429 39 1113 41 1945 81 1398 98 1262 19 1194 14 1234 62 1097
6941 0.58148717595045096 3.1580185252670936 1.4164571521324814 65 135 77 0.075724685684203583 27 1327 31 737
5448 -0.16082187682715796 2.0980527039622276 2.0384152839436758 181 181 192 0.75616993328472848 64 770 92 1802 39 1155 81 1181 85 1317
6615 -0.023605562121323226 1.4161311582943705 1.506918363391752 75 146 78 0.19990013346901814 98 50 19 47 14 46
5122 0.069515238628812828 1.6715004676130412 1.6468581530957616 149 160 117 1.283385134427665 65 1761 89 1503 92 900 49 849 56 1334 25 1321 85 1941 44 1805 64 1838 91 1827 65 2132 100 1811 73 1987 54 680 78 837 24 597
6278 0.428449489492644 2.6198066335752248 1.614686337234118 211 200 123 0.14541913430443001 41 1887 81 1727 98 1674 19 1859 13 1620 62 1537 15 1665 87 1156
6240 -0.52050556813403814 2.8321257041769483 1.5622639700448806 72 106 52 0.23758855434878606 41 1408 81 1433 98 1256 62 1062
3740 0.042312579234292734 1.3207037691696115 1.4780613918124481 128 150 100 0.014662055064018385 82 549 25 676
10167 -0.064180763669132335 3.0883856992580503 1.2835355078161756 112 208 99 0.58030321201139401 72 422 95 405 23 388 96 645
6949 0.5073861616660954 3.1655515066097224 1.3882946292183798 56 106 56 0.11498402899624682 27 1706 31 1017
5456 0.21319087716395341 2.9274033757999498 1.3389638295176853 228 224 139 0.17967473253392954 44 2059 39 1252 41 1365
3775 0.28082775284623596 2.1320630161369802 2.04442293369044 174 178 191 0.73835536494918086 65 1585 71 1001 25 903
10202 0.28381762694000023 1.1920230627488166 1.4209477246169204 254 247 228 0.07951706204329638 72 917 95 597 23 901
6984 0.47745678949299591 1.532958202087584 1.5826040264028267 63 108 54 0.29818114937324192 44 832 64 858 73 1106 31 970 91 1116 27 1117 65 1770 92 1647 13 732 83 870 78 846 47 732 38 739 9 864
5491 0.47590787075937691 1.26146916687533 1.4732100014260503 222 225 241 0.124752708292141 64 1756 39 1555 73 1502 13 1303 83 1242
6275 0.087347633370292485 2.3921709672876053 1.8974755919755537 89 123 60 0.94452308427175879 39 1602 81 1709 98 1561 19 1442 14 1423 62 1281
6080 -0.19089740296544105 3.3164365279831531 1.4771063943400826 102 80 59 1.9487494864024084 65 1890 92 1388 91 1436 70 1511 85 2277 44 1374 64 2149 100 1235 41 2182 73 1907 91 1453 92 2254 65 1893 82 2059 71 1812 56 805 70 2304 25 1091 56 1771 44 1970 64 2181 100 2004
3580 -0.55855305949012313 3.2584210243369811 1.7167389077487378 80 55 31 1.6708656827582484 71 1869 56 1756 97 1283
10007 -0.57985399635094237 2.7539642864116076 1.5544318267045243 80 62 42 0.32258628089178715 10 890 72 913 95 1267 23 1195 96 802
6789 0.23132807153255536 2.4664371260730777 1.7772857158098834 75 121 60 1.0926617995820374 91 2066 44 1146 64 1445 100 2038 39 1126 81 1080 98 1250 19 1250 39 2064 41 1965 81 1969 98 1772 14 1690 62 1707 87 1611 15 1638
5296 0.4506146013491556 2.5225374629944235 1.7326930635258844 71 112 55 0.1738135660758878 64 2076 100 2002 39 1528 41 2025 81 1865 98 1821 19 1877 62 1616 87 1540 15 1079
6282 0.76616262138973878 2.1774213520356303 1.391601890134637 133 103 75 0.144484292457185 39 2023 81 1749 98 1264 19 1674
6299 0.5907430277135155 2.6363724443103949 1.6315293032140552 212 198 112 0.26196231484393817 41 1326 81 1805 14 1107 62 1216
6305 0.41284651399909383 2.4074578441474324 1.8827032656851914 54 104 54 0.093767949106130954 41 1969 81 1831 98 1769
6267 -0.087966801043667192 2.3962078847106114 1.8869740400170125 166 155 87 0.20503968265566871 39 1603 81 1644 62 1061
3767 0.2664804644996982 2.6568281517569381 1.5511416692997637 247 255 153 0.11828496321038416 56 863 25 847 97 852
6976 0.3714984933389357 2.8991130876967555 1.3747932222703607 245 249 141 0.70525636759019994 64 1549 31 1587
6302 -0.34591700040765155 2.8392811798576547 1.4548511965365938 113 173 81 0.15658164616356429 41 2011 81 1820 14 1720 62 1293
6148 0.59354741475731054 1.5072591467124532 1.7195595835141013 190 201 152 1.9141415599380962 39 524 98 1123 19 1053 14 616 62 819
3648 -0.53257135107665188 3.0517422794657501 1.4397927857746264 52 101 48 0.18787021050449113 56 17 25 25 97 25
10075 -0.58797655278513428 2.7909956052595399 1.8584581776621247 213 189 147 0.14619336988113146 10 1368 72 1331 95 674 23 1295
6857 0.22504749233942661 1.1882192865258014 1.4124103684791287 201 204 215 1.4729868075114567 81 1008 14 1301
5364 0.41387922050555204 2.7754187859230615 2.5171311529371301 53 107 57 1.0607435540896129 92 2167 39 389
5978 -0.60665734035542063 3.5887684433275244 1.9445674134622624 191 167 138 0.3834639149744748 27 825 73 871 13 1078
3478 -0.43692305701639034 2.887836349308873 2.832253647299749 167 166 169 0.74232226997434547 71 1822 56 717 25 1339 97 1469
6687 -0.013281880536986698 2.776897046551003 1.4502592803476668 80 134 67 0.90635459656983786 98 927 19 893 14 839 81 597 13 1558 62 877
5194 -0.05524672783054576 3.0943199652736442 1.2798072959895441 86 161 76 0.37435776319298025 64 610 100 863 73 618
6350 -0.39161192938091249 2.7417659115326534 1.566410871608523 95 174 75 0.34317139381351547 39 69 98 33 19 53
6178 0.47846145363819464 1.5336497617515281 1.5818740880280928 88 171 94 0.69640985292982205 41 1262 81 782 87 941
3678 0.15944498335388549 1.2463309181659215 1.4568329899537835 97 159 99 0.17710346751489725 56 422 25 238 97 401
10105 -0.12596049051767766 2.4464000511511563 1.7693897138666534 91 157 78 1.0630808820551967 72 95 95 64 23 67
6887 0.45242098992296614 2.7571696413540141 1.4841295682322366 239 227 147 0.18117807418964166 19 1627 14 1776 62 1546 87 1487 15 1505
5394 0.41229914764944436 2.7947557227540645 1.448285125583076 64 111 60 0.76995235748545876 100 609 39 662 41 532 81 813 98 805 19 785 14 729 83 1008 78 1336 47 943 38 899
3845 0.45303111961739567 2.072789862887805 2.0089934089729513 138 140 147 0.079310785658172553 56 1446 25 1401 10 1111
7054 0.67780747642556771 2.8905837315786576 2.8246850943845865 2 1 1 1.4720519963595209 13 256 83 326 78 240 47 438 9 164 46 111
5561 0.38663310121081235 3.36050199772848 1.4777161510278554 119 123 133 1.80891009067495 33 1163 44 991 64 1434 39 1463 41 1452 73 744 91 2103 81 1278 83 480 38 613
6380 0.069478185201329215 3.4012529357394428 1.4731389860195618 171 157 153 1.3092360249511699 41 2064 98 353 19 456 73 743
4887 0.14408454506269933 2.8210498020879524 1.2315841379064034 132 156 88 0.50557674445673284 44 949 64 924
3846 0.43259947485308331 2.0248621052244342 2.01273653351585 169 171 181 0.23074059315658529 89 1635 25 1403
7055 0.87757110157160712 3.2450942103724882 1.6134045136866515 126 105 85 1.785218433681018 73 384 13 264 83 247 78 241 9 331 47 634 53 174
5562 0.56277207012798114 1.3597853884980251 1.4622520656163616 81 112 68 0.90531677561225321 100 0 39 0
6381 -0.5903529720822519 3.0910953140637427 1.457502069441009 0 0 0 1.9172996389640524 39 425 98 359 19 578 13 99 83 131 78 90 69 64
4888 -0.3677753857967837 2.9321683171697317 1.3992384998160283 227 214 125 0.30127873803873473 44 948 64 928 100 1051 39 946 41 1461 73 612 81 1335 98 1266 19 1209 14 931 13 827 62 993 78 930 87 1609 15 965
6211 0.18776378156045048 2.2779561606136118 2.0310065550790024 68 120 58 0.35075326131630574 39 1196 81 1141 98 740 62 626 14 629 87 1353
3711 -0.011982427525244652 1.8943483108495416 1.8103659252006954 56 94 49 0.86740515325397738 71 377 25 478 54 877 24 1395
10138 0.55137085352249593 1.5202891671228906 1.6039210269371356 190 224 176 2.481186549500991 72 163 97 1302 95 224
6920 0.89798249925817031 3.0640179590150729 1.5553403189907304 0 0 0 0.96957038268457429 44 1318 31 358
5427 -0.0061704915067387778 2.5017041714893868 1.7237924506412101 183 164 96 0.22348426661662296 100 980 39 1000 41 957 73 1067 81 931 98 431 19 879 14 610 62 598
5888 0.72761217550602419 2.8018417738256236 1.5701634823881621 164 161 113 0.9742843738567698 41 2148 13 1537 73 644
3388 -0.11989681307534054 2.9429915748002875 1.3561222207964703 105 139 74 0.41967945932645212 92 26 70 24 49 29 82 35 71 49 25 93 97 98 85 26 59 34 55 70 68 33
9815 0.23650588256345001 1.7024674922433942 1.665225357474361 114 144 93 2.3411914160268967 33 765 27 736 65 694 89 804 92 883 70 879 82 1108 71 1092 49 1246 25 683 97 695 31 682 69 840 91 715 33 751 27 1144 65 1478 89 1215 92 1590 70 1167 82 1101 71 1095 49 1619 56 1017 25 975 97 1031 44 1566 100 826 31 952 13 641 83 840 70 1175 82 1104 71 1442 91 717 33 766 27 735 65 727 89 1212 97 1036 85 1606 44 726 64 723 100 681 39 688 41 680 73 729 81 783 19 755 31 683 13 638 83 852 78 997 47 842 83 546
6597 -0.092492422759203968 1.3559156350695354 0.60270289186695813 4 4 4 3.4780730648634153 64 2238 98 773
5104 -0.19455517952478535 1.4135924663085575 1.538988768838917 127 139 90 2.3040619348252935 91 1182 33 1577 92 1597 70 1184 82 1126 49 1292 56 1414 25 1372 97 989 44 1881 64 102 91 106 33 109 27 113 65 99 89 87 70 102 82 86 71 74 56 63 25 66 97 76 85 96 44 110 100 96 100 1565 39 93 39 1533 41 1681 98 89 98 1496 19 1487 31 147 59 1720 55 1065 68 1123 54 59 54 926 24 63 24 1196 36 931 42 1180 10 53 10 1077 72 82 95 60 95 1060 23 83 23 958 96 740
6260 0.63902527500453721 1.6970586669282299 1.7547266120756677 179 173 178 0.15596470335393456 39 1710 41 1845 81 1615 98 1630 19 1460 14 1237 62 1709
6424 0.49873509345490247 2.2561089385250206 2.104796012118344 67 112 57 1.3059254775341176 39 1094 85 1329 98 730 19 971
4931 0.38458584020322073 1.5555402085384662 1.5747275981711084 67 130 73 0.32045096359205444 85 1901 64 1213 100 1755 73 1621 13 1248 83 1213
6393 -0.26628392675070273 2.2925619713582588 2.0897904279800317 52 85 37 0.083368363910222149 39 439 81 430 98 480 19 460
4900 0.75592622083101013 2.9587110783688884 1.4131315043978478 67 120 62 0.38397594558436271 44 930 64 986 100 931 39 803 41 884 73 548 81 862 98 852 19 821 14 1130 13 516 62 771 83 658 47 654 87 720 15 749 38 614 69 1099
3893 -0.19935554137612663 3.1699983058214225 1.3758462122757622 159 155 115 0.37682800622299623 56 1840 25 1791 97 1872
10320 0.10891122474154442 3.2759311102653479 1.3467235577901686 63 45 28 0.13684379240912095 72 1255 95 1272 24 1435 96 662
7102 0.71590767077500117 3.0693596825549672 1.3770812345847314 68 141 81 0.33860249354994765 73 904 13 816 78 685 69 354
5609 -0.51223730863320827 2.3060563178056248 1.3425476120013609 112 85 60 0.45504426882651422 39 207 41 209 81 222
6246 0.70287818955649406 1.9125362342058696 1.6366760339947233 228 211 121 0.092460999627091395 39 1653 81 1456 19 1831 14 1582 62 1614
3746 0.34797618685812504 1.0557249850300532 2.2264750628744747 71 98 54 2.3698208089852777 65 863 97 1054
10173 -0.34982768974875272 3.0727338693076369 1.3545123564309522 119 159 102 0.2383755970174064 10 172 95 420 23 626
6955 0.83722926966636546 2.8126532580365331 1.5688682470343498 107 90 60 1.7345211325749017 73 1183 31 1108 13 764 83 1356 78 646 47 1393 38 831 69 760 9 1004
5462 -0.31380160785558037 2.8574861970968177 1.4263333620108651 109 165 79 0.55042365291733231 100 1350 39 1320 41 1454 73 1758 81 1339 98 1297 19 996 62 997 87 1320
6281 0.17770953431864472 2.7711149638320576 1.4542992419997749 198 193 116 0.33074709951978776 39 1856 81 1743 19 1668 62 1612
6413 -0.19909214300513925 2.3036298088767015 2.0419701349959882 69 99 45 0.27424684900678509 81 745 98 653 19 624 14 688 87 570
4920 0.57811111285534689 2.5950759120225415 1.6786875252964024 144 149 78 0.33837477228482193 44 1049 64 1094 100 1031 19 791
3913 0.05521440499693217 2.8190870105474604 1.4132030300662242 251 241 144 2.057028142532165 65 1355 89 1895 92 973 70 981 82 1032 71 1302 49 1042 25 1645 65 1056 89 1361 92 608 82 1034 71 1353 97 1716 97 1721 59 880 55 923 54 1152 24 1045 24 1502 42 894 23 1004 94 747 11 453
10340 -0.030765523000114193 1.1900830244155183 1.421551697742153 250 247 229 1.3402303412141356 24 138 10 162 95 337 82 552 71 774 25 667 97 1278 72 301 23 486
7122 0.7143339167703141 2.2499164397799403 2.1848905031961334 255 255 252 1.4244682345719937 73 1037 13 1134 83 1458 78 1330 9 1048 46 932
5629 0.42794209518850018 2.654256270915524 1.5788155799936199 209 197 119 1.0232049080453953 39 619 100 396 41 284 73 609 81 396 98 252 19 308 14 195 13 376 62 200 83 378 78 370 47 252 87 239 15 226 38 439 69 620 46 601
6041 0.48111829920252108 1.5459131205402226 1.5875652361879553 63 113 61 0.40864852509961364 64 1853 73 1626 13 1288 83 1216 78 1055
4325 0.27131676707350577 2.8850922694409395 1.3687536085801468 78 122 62 0.091501975462063734 92 2104 85 1966
10752 0.77513646632598288 2.8989806312495432 1.4624438764360619 228 246 170 0.040924485806094334 42 620 11 555
7534 0.27137378828667635 2.4327707660888849 1.8137631170274544 75 103 56 0.041052678600685337 49 1546 59 1576 55 1508 68 1466
5960 0.28971882048947567 3.2327170033992587 0.3284457429995854 230 240 254 0.85255524726055554 27 1019 73 557
6367 0.097735387848831595 1.4085663585558257 1.4615794525159906 132 161 106 0.64559099907708817 81 294 98 203 19 183
4874 0.60063418725894191 2.2961245573627553 2.0981980237860238 167 162 99 0.6805959840945357 85 1289 64 829
5965 -0.33015393086792921 3.0739193514223215 1.3312469610495168 74 132 75 0.12112873432391198 100 611 73 633
4249 0.22451815606739531 2.4859119578037356 1.7431163369985372 59 102 51 0.089731853088422672 92 1095 85 1046
10676 -0.37857443487281772 2.2808889362068636 2.1431604439329925 147 153 97 0.47646840365186743 42 984 94 835 11 577 52 817 96 664
7458 0.49498903623616936 2.2649963944911553 2.1197623247496145 73 122 63 0.29138381754461601 49 1451 59 1067 55 1675 68 1065 36 1424
4174 -0.4814207372487404 2.1883396155860599 1.4088564712694078 253 215 139 1.6109678145866948 92 9 85 12
10601 0.59285851170321391 1.4845154961388565 1.6253679707613782 170 171 129 1.4123107024475141 100 1745 73 1663 83 1215 47 1038 38 995 9 862 13 473 83 419 78 398 47 402 87 382 38 366 69 334
7383 0.43640734760831462 2.3487527954813552 1.9762872813077184 55 111 60 0.38761798610883075 49 764 59 466 55 447 68 488 36 395 42 519 11 462
5890 0.83885027255824529 2.8449590920783812 1.5633845573380438 47 105 62 0.2863979949819197 39 1233 41 2159 81 756 98 1178 19 1117 14 1672
6372 0.35696458360319822 2.3838857648365313 1.8899948042485146 48 101 54 0.18122011768576604 81 275 98 283 19 334 14 316 62 320 15 322
4879 0.49091158015536929 1.5256002484114275 1.5879007594731889 87 135 79 1.5258855881395696 44 863 64 856 100 783 39 831 73 784 78 847 83 871 47 734 69 850
5984 0.48679386774931394 2.7240407536237941 1.5201716933833733 138 173 94 0.18660859085737744 41 875 73 954 13 1177
6391 0.099695863658284534 1.3725737623284315 1.4875363254637095 165 179 116 0.26511202973662168 81 438 98 460 19 432
4898 0.17052965003366699 3.3411294859105518 1.4088584409148075 72 50 24 0.85340344701171278 44 1554 64 971 100 1303 41 1475 100 381 73 876 13 1524 83 1310 78 1472 69 529
6738 0.1547255146979902 1.0696555959197778 1.3797147452335385 43 29 17 0.11688863116396438 98 1432 19 1542 14 904
5245 0.36466612004756177 2.0361124073597465 1.8466482198740686 162 154 156 2.2479957647876883 44 1743 100 1595
6401 0.14124611889171235 2.4852351354945372 1.7368019301647284 97 112 63 0.23061736553996787 39 601 98 582 19 550 14 507 62 510
4908 0.3855136267948352 2.4497292546670111 1.8114615158379967 134 124 77 0.43545738375370108 44 1069 85 1080 64 1018 100 1137 39 1136 73 1884 98 1312
3488 -0.12175647493268231 3.3068467103176387 1.4560149436569703 210 205 204 0.83037046388638347 82 2055 89 1303 56 801 25 814 71 1231 97 788
9915 -0.49753535329565685 2.969232922032087 1.4094151768725043 108 194 87 0.26104724708828214 10 421 72 435 95 418 23 360
6697 -0.21024022726358879 2.7415858929212864 1.5171934096366013 136 167 87 1.6214766702141363 41 1484 81 1357 19 982
5204 -0.010697090101241041 2.2941043573449829 2.0282810248675909 163 153 83 0.31724572810611112 44 1302 64 1374 100 1057 41 735 39 746 81 644 98 629 19 601 14 555 13 1383 62 547 87 543 15 544 38 511
6395 0.53083972697019921 2.7365475319968464 1.5146782427178258 56 101 52 0.52675448541686354 39 534 81 516 98 505 19 532 14 545 13 604 62 781 83 762 78 738 47 705 87 455 15 451
4902 0.83544220484328979 3.0523721095639078 1.5131704602404032 146 213 136 0.56271252798211924 44 1005 64 998 41 893
6020 0.64515652854759631 1.3857806346598949 1.5520010588656785 0 0 0 0.043780862407988418 33 1999 85 1711
3520 0.85207948192344307 3.6832265882352222 1.96085379024069 121 118 119 1.0340085889740898 33 1228 56 1168 31 1190
9947 -0.56235029433532946 2.98113100108736 1.433300989143967 83 105 49 0.06114578437698296 10 653 72 591
6729 0.034595238570895026 2.40263112929892 1.8500839319279387 137 136 75 0.1119241711209356 98 1562 19 1443 14 1432 62 1439 87 1310 15 1299
5236 0.68501983583301818 1.5317822573060862 1.6507600263505233 227 235 246 0.079080457283844496 44 1614 100 1445
6392 -0.43474939527130835 2.128465219288826 2.2046688931474523 0 0 0 0.1066147894325859 81 508 85 1494
4899 0.47623996095768995 2.9748932071288352 1.322937880244391 70 126 63 0.14464576040667507 44 1342 64 984
4355 0.45002491719156346 2.7683156218408942 1.4741049907325179 73 115 61 0.17267447463953492 91 1924 85 2113 44 2042 64 2058 100 1965 39 1847 41 1907 73 1791 81 1882 98 1907 19 1658 62 1548 87 1489 15 1508
10782 0.3013671834434628 3.1076684094013536 1.2730970079546151 97 129 56 0.075790094897846938 94 1014 11 1122
7564 -0.2983804607877375 2.7974747067164705 1.4806438955428927 64 102 51 0.02027022886864295 49 1305 59 1849
6071 0.57954417390792135 2.715390257772107 1.5485045861092794 242 230 142 1.8064016996357286 100 1014 39 862 73 950 91 1082 33 1915 44 1427 100 1332 41 836 39 860 81 812 98 797 98 799 19 782 14 1080 13 689 13 1150 62 785 83 983 83 1449 78 887 78 1240 47 684 47 1013 87 684 15 536 15 1021 38 654 38 812 9 775 9 1086
5809 -0.080611726337704068 2.5023459360556277 1.7362492233760993 73 130 60 0.46550461678637967 39 998 41 1531 81 1451 98 680 19 940 14 596 62 588 15 599
4018 0.71974761501455675 2.0477144309515971 1.4916510632004267 111 169 76 0.70177995367724044 25 1030 56 1513 97 924 95 1125 23 983
7227 0.05027764817778789 2.4067186548242461 1.843903401449247 53 88 40 0.15077222121455605 14 594 62 345 87 1130
5734 0.35971177390610615 2.4101372309377589 1.8621060287052051 136 132 84 0.22066555450905306 39 1002 41 968 81 946 98 908 19 892 14 816 62 864 15 790 87 763
6412 -0.30268545667946722 2.4472588829225259 1.8972385843098118 177 157 91 0.0095880670931444562 39 708 98 643
4919 0.049943196787283609 2.6397507951835162 1.5651686948814307 76 125 62 0.56495897172549314 44 1048 64 1089 100 971 39 1056 41 997 73 1302 98 618 19 582
6406 -0.44959142323869411 2.5928029148348166 1.7327933999584539 165 152 85 0.051628298592892807 44 1025 98 622
4913 -0.31559497221334748 2.4885981977709934 1.809239477344772 83 147 66 0.14607231607577512 44 1059 85 1059 64 1043 100 1072 39 707 41 701 81 698 98 696 19 661 14 560 62 576
6157 0.53591603525949993 2.4875764613421394 1.7955650876411144 64 113 59 0.15081447529420541 41 624 81 601 98 562 19 575 14 517 62 515 15 463
7575 0.15654978955446255 2.8881042285425731 1.362328463277839 73 127 58 0.13000621954659086 70 2025 59 1937 68 1737
6082 0.28874076542714511 2.7750591103022795 1.450753211647601 79 137 72 0.41153357767244775 39 906 41 865 73 991 91 1484 33 1712 65 2007 89 1868 92 1452 70 1608 85 972 44 1394 64 1078 81 848 98 832 19 773 13 867 14 753
6599 -0.11538240318927735 2.5036712927825175 1.7410924608761247 180 163 96 0.16782391221128523 39 1072 98 1378 19 1370
5106 -0.14366219017261575 1.4868381667487445 1.5507424039890239 151 153 104 1.5813294678606125 91 259 33 447 27 433 70 666 49 538 56 467 97 737 44 686 64 239 89 266 92 257 70 228 71 278 49 253 56 238 25 242 97 254 85 255 100 251 39 223 41 324 81 301 31 220 59 212 55 200 68 185 24 227 24 680 10 265 10 561
4225 0.081033764578926734 2.4898858914446951 1.7316640697687569 59 110 50 0.19350983860632665 65 1137 92 669 85 672
10652 10.361786230533394 6.9333038127633841 6.5303445886767015 0 0 0 1.4288271717474514 72 1321 94 401
7434 0.62336936664625242 2.1577585199286702 2.0855144970356019 236 242 255 0.85598573031197578 49 470 59 806 55 753 68 462
6423 0.1485694448792364 1.0732198933070261 1.3757379025498437 82 57 34 0.57545319521303817 81 764 98 717 19 447
4930 -0.41024802789446674 1.9582284130406831 1.5829323469289955 80 149 81 0.20535385752290991 44 1392 64 1176 100 1151 39 786 41 1257 81 768 98 1118 19 1321
5937 -0.10145525443704698 2.9072005022593639 1.3712595769210323 200 211 115 0.47800480192652789 100 133 73 199 13 186 78 245
6344 0.24623612763945124 1.3868016672246164 1.4898170848428822 70 123 60 0.92846641850414346 100 1494 41 816 91 864 33 717 27 691 65 872 89 763 92 846 70 1293 82 1087 49 1118 56 1262 25 1238 97 1019 44 518 64 505 100 837 39 481 73 1361 81 796 98 455 19 478 14 542 31 646 13 989 62 422 59 1157 55 1395 83 650 83 1071 78 806 87 672 15 660
4851 -0.11552952923809245 2.7664796144156374 1.5968720778547434 198 193 110 0.87716243665052906 44 436 64 652
3911 -0.13406434427622912 3.2574763768018604 1.4106168785041331 176 168 167 0.6325892510026867 25 555 82 1446 56 510 73 1926
7120 0.84724068541471964 2.9573588980129202 1.4516161836694703 235 222 134 0.44795478984919435 73 1347 13 1084 83 910 78 778
5627 0.14120720119367502 2.5789022366967913 1.6147494880361308 79 124 64 0.53718910042391788 39 238 41 277 81 254 98 238 19 233
6276 0.57146462009445598 1.626524129891735 1.6965729177643738 93 180 103 0.74265099357983433 64 1134 81 1716 31 1299
5998 -0.34642724836511102 1.8760747466476779 1.8561532443136664 198 204 222 0.75871591258012716 100 1448 73 1148 31 872 13 1004 83 1378 78 749 38 972 69 983 9 593
3498 0.63476527446198994 3.142420756080508 1.4383820008787958 137 213 141 1.4605629717563431 65 1860 91 968 56 878 85 1331
9925 -0.14746951507486544 2.4074292833523319 1.8861077760315381 91 155 76 0.21281946421424403 24 539 72 485 23 391 96 478
6707 0.00098510420849799957 3.045412982604947 1.290794579087198 197 201 121 0.17320918430435894 73 1281 19 1127 14 1517
5214 0.73924601321448058 2.3122304408697651 1.3413205862854169 91 86 48 0.044633644857375976 44 1176 64 1251 100 1130
7208 0.36633586428885911 1.3459294758005489 1.4988058500994061 206 208 152 0.26478729113941218 14 281 62 224 87 202 15 162
5715 -0.11163457199552156 2.3047828895525879 2.1092508828418426 132 127 67 0.94657268435422903 39 737 41 770 81 626 98 1625 14 1462 62 1465
3414 -0.57472923146334809 2.9422638895500111 1.5815723321432651 84 119 49 1.4922569736062239 71 23 56 33 25 24 97 24
9841 -0.40590688473039144 2.8548305227316044 1.4642288993643786 98 169 74 1.021168476664972 10 72 72 73 23 47 95 40 94 48 11 64
6623 0.30045190598686017 1.2582160612578075 1.4772971028895947 47 91 52 0.82676533074729397 98 148 19 139 14 134 62 180
5130 0.72281502594264024 3.1888538362255217 1.4776424369125369 110 94 77 1.1901093499380813 64 594 41 564 81 1287 38 849 87 1718
5879 0.25033729523208537 2.4039034437888449 1.850078122738064 133 136 79 0.064105213894588994 39 2048 41 2092 19 1829
6286 0.77653639043733214 2.2013421754935898 1.3707316157438034 255 250 167 0.17652489661162563 39 1344 41 1971 81 1760
6040 0.54276480795303705 1.5192372008065946 1.6057925562468018 186 187 140 0.16232321264388086 100 1756 73 1625 78 1057
3540 -0.30061782489778494 1.6507779045109527 1.7371485743928332 123 122 84 0.1434293462458992 82 1847 56 1358 25 1748
9967 -0.58555896728182422 2.6616843972699824 1.6669928497488899 249 237 184 0.80338412372251344 10 892 72 672 95 634 23 855 96 497
6749 0.71376936765984966 2.6021760191212016 1.7312946346668623 48 79 36 0.031686452081782439 98 1706 19 1685 14 1537
5256 0.70039445872954353 1.5758344178942134 1.6792906956599611 169 166 171 0.1197109501330455 64 1839 73 1656
5961 0.580632596916827 2.9295915446340035 1.3853444625719462 232 223 139 0.96613228748453761 39 956 41 582 73 561 13 533 78 525 9 1033
4170 0.81717843210227259 1.724145301919523 1.7968211012503874 0 0 0 0.50247770787118273 91 5 85 5
10597 0.59329266773554601 2.8632796667355938 1.4231277015495363 73 130 69 1.1444302174901839 15 1555 87 1652 38 1188 9 783 44 957 64 950 100 897 39 944 41 904 73 859 81 831 98 870 19 843 14 793 83 748 78 873 87 697 15 651 62 1112 69 1130
7379 0.69392209294157237 1.9024213634930029 1.6420975317047382 151 160 88 0.36521979712361391 49 336 59 445
6368 0.44500635372472896 2.5041879117699177 1.7612654811708146 106 110 67 0.5668411527704611 39 243 98 240 19 236
4875 0.083478075429795739 1.0742053217030068 1.388036922352518 2 1 0 1.0743600396509818 65 1401 64 838 41 505 81 1088 39 1725 98 1454
5993 -0.56480135045076008 2.5669913679592109 1.5538148641114202 113 95 75 1.4940909171427921 100 1073 73 1055 47 857 38 546 69 461 46 667 84 774
6702 -0.47978882312445464 2.5491119345498086 1.786708987511815 72 119 53 0.12386787417451055 98 983 19 1092 14 573
7376 0.10949843645437823 2.3092555837097741 1.9896761327547026 57 111 47 0.069054050979841547 49 481 59 434 55 292 68 289
5883 0.81223442523482769 2.6028282288979514 1.5334356522509751 108 91 58 0.64997711624096322 39 1829 41 2104 81 2008 98 1913 19 1686 78 1260 83 1447
6365 -0.45429060083231754 2.7954414719470013 1.5584816374098036 102 105 57 0.55590646868050875 81 289 98 191 19 177 14 164 62 159 87 353 38 690 84 304
6119 0.35657909566565987 2.1302494683496787 2.0350816282854698 117 88 56 1.607496620907644 39 127 98 126 19 129 14 166 62 241 85 1852
4328 -0.30289183543789255 2.8306546851666599 1.4461804050768141 72 113 56 0.11462531014434169 91 1980 85 1971 44 1431
10755 -0.40639744949283901 2.0612220266005017 2.0586226034298609 192 168 132 1.0132580013173387 94 590 11 612 5 463 16 211 52 346 34 374 86 369 26 214 67 201 74 583 4 293 2 375 3 500 35 422 77 375
7537 0.12886008141313865 2.2612790355213077 2.0750607877361378 136 128 84 0.17352702091115926 49 1548 59 1581 68 1497
6044 0.85237663646200779 2.7321917485358829 1.5381884059623108 94 71 50 0.045434615909059652 41 2169 100 1945 73 1678
5817 -0.36019036460808146 1.8763457591030686 1.6247639361054065 216 216 230 1.4330296445744031 39 1816 41 1585 98 1385
6526 0.22965809233090001 2.5391957100128 1.6782440996325543 59 94 51 0.29401800479518242 81 1816 98 1759 19 1908 62 1670
5033 0.58335434444073886 1.5296130559274399 1.6472808640297127 74 139 77 0.81009019886636824 44 1892 64 1854 100 1484 39 1826 92 254 41 1800 73 1076 81 1666 31 1268 13 634 83 629 78 630 47 585 87 542 15 1275 38 454 69 507 9 444
5967 0.60548234251121069 2.9466790837420143 1.3779981541046231 138 167 98 0.2764306924501822 41 578 73 640 98 542 13 532
6374 0.18535013846261741 1.2514400337796854 1.4625027186559438 92 121 78 0.13314591442414836 81 303 98 301 19 284
6120 0.84573381127315106 2.8621381458864512 1.5660297150283744 110 117 63 0.31531427241329063 39 246 81 239 98 330 19 325 14 307 62 246
3992 -0.56355184415975745 3.0589485670281915 1.5687286193183463 114 117 59 0.092877156592312465 25 553 97 511
7201 0.049760278694041565 2.3588593108520057 1.8900756227462989 121 124 67 0.75532243555538692 14 81 62 81 15 94
5708 -0.24836316686112844 2.5192053362813001 1.7554391157840625 84 134 64 0.47161284649446067 39 1624 41 728 81 712 98 668 19 641
6110 -0.010369642896434744 3.2860492917628346 1.3901684797662208 199 188 186 1.9891502186389225 39 182 81 170 19 215 14 150 62 458 87 237 15 151 38 284
6819 0.82811279274368976 2.9054774023151149 1.5591365250970408 105 166 81 0.21399821318627923 19 328 14 308 62 464
5326 0.12446827203075729 2.7109269444171624 1.4949850064069279 248 239 144 0.22249955618849826 33 1044 27 1359 100 1931 92 1569 85 1492 44 2174 64 2092 39 1323 41 1468 73 1751 81 1400 98 1669 19 1181 14 1173 13 1569 62 1583 83 1271 87 1523
6075 0.13939620317809553 1.1364874136161438 1.3545507484529644 90 67 41 2.0371408035988408 91 188 44 188 64 183 39 118 73 243 44 237 100 238 13 426 83 357 78 297 47 342 38 349 69 336 9 307
4284 0.39560736841490252 2.7508946383408688 1.4772815684565768 223 212 134 0.12877012698573992 65 1970 85 1495
7493 0.50049483719077736 2.5553482943114143 1.7013731307841777 65 103 49 0.1056237355159885 49 1564 59 1260 55 1611 68 1018 36 1434
6069 -0.15974206908659999 2.958839259698554 1.3472347694331386 147 206 103 0.11745967067279039 41 1922 73 1973 14 1641
4278 0.8565288758268389 2.7236474217086744 1.5383083351619395 251 247 228 0.54092012571414327 91 1475 92 1214 85 1465 44 1396 64 1552
7487 -0.44154052050133574 1.91707035025468 1.619261622096748 87 126 66 0.13604398412484442 49 2073 59 1227 55 1821 68 1227
6104 0.7687020185951513 2.1013199516177186 1.4880268507881405 99 132 74 0.33893262502506971 41 125 81 116 73 136
6813 0.081151664390726574 2.7961816676474029 1.7001373415698633 142 150 84 0.020585123104300149 19 151 14 121
5320 0.4909354261668839 2.2567789494956974 2.1406960516837192 54 88 43 0.49490965424514838 91 2049 85 497 64 481 100 475 73 944
6318 -0.33549459015761113 2.4790382346905422 1.8284687912102064 181 160 90 0.16258352954952976 39 1083 41 1743 81 1924 98 979 19 1095 14 1071 62 929 15 927 87 1375
6033 0.17937184621718472 2.0077234449294679 1.9877537224610189 73 121 74 1.6221114022293888 64 1437 100 1633 73 1563 81 1131
3533 -0.27699285266979595 1.2976388967063968 1.5076261218352975 177 175 183 0.36201876435726404 33 1339 56 1286 31 1371
9960 -0.283759357836535 2.7419602712194351 1.5199606004901483 254 251 152 0.21070632765931255 10 738 72 645 95 612
6742 -0.32594986303867901 2.1485661929048834 2.0814022711559939 135 127 123 0.43188845413462351 81 1174 98 1611 19 1562
5249 0.73746906686636349 1.9415105306157918 1.5902628653196564 115 175 84 0.24128262277829299 64 1620 100 1647 41 1090 81 1426 14 1611
6159 -0.079655143469345907 2.1068859600502776 2.0274563535692911 90 79 49 0.37403444428922583 39 656 81 625 98 649 19 740 14 1045
5857 -0.15205911326836688 2.968235834968167 1.3431963713317037 227 217 128 0.34918689155438681 39 1841 41 1924 98 1929 14 1612
6566 0.13422183824033695 2.6908409785679046 1.5211795121706388 163 170 98 0.82766059221667609 39 44 41 62 81 66 98 58 91 88 44 73 64 78 19 64 14 58 62 70
5073 0.61767523458169782 2.7484561389706252 1.5347161090813921 72 127 69 0.4475933832685064 85 2050 64 2056 41 2149 81 2003 98 1919 19 1647 14 1713 13 1503 62 1717
7579 -0.095473714862902112 2.3468354226478172 1.960795070812581 78 110 51 0.1630622561967062 49 1961 59 1970 55 1826 68 1837 24 1473 94 668
5824 0.13866590818873623 1.1047275052415328 1.3745241292301171 251 228 198 0.94299364381390793 39 1636 41 1644 81 1556 98 1440 85 1770 19 1497 14 1390 62 983
4108 0.099220173566636399 3.2109078737357408 1.310198560379312 72 126 66 0.18745481035640621 56 1655 97 1835 31 1053
7317 0.24171355763288147 2.3063954715573431 1.9922234249860438 157 155 98 0.71026813142371281 49 74 59 76 55 79 68 46 36 82 11 67
7242 -0.014015246527832073 2.3060656570804516 2.0064077976156076 53 94 42 0.086450358017537934 14 558 62 551
5749 0.11713164989404662 1.3678676828273928 1.4817949699819075 65 130 68 0.34964653929264755 39 1500 100 1427 41 1060 73 1378 81 1046 98 1085 19 746 13 1298 83 1243 78 1088
5859 0.72780747124788969 2.2013809847958727 1.3941668025586691 255 250 222 0.13952018128521901 39 1119 41 1937 98 1699 19 1856
6568 0.53505382649968303 1.5522009192948927 1.6163814433017603 87 165 90 0.58527142547053923 39 506 41 577 81 495 98 488 91 839 85 542 44 559 64 548 100 486 73 528 19 399 14 356 62 995 83 379 13 323 78 299 47 401 87 284 15 245 38 364 69 337 9 295 46 273
6290 0.72330911852794011 2.6042509768553184 1.6262084755059449 48 70 26 0.54294644066172582 39 1858 81 1776
3790 -0.43070722050564414 2.4717653981361036 1.5513035062242828 98 121 61 2.036226276213867 89 494 91 497 25 965 44 843
6999 0.12994589006529214 3.2576264942338269 1.3616479491187343 73 78 60 1.9709883958403116 27 484 33 339 31 316 56 406 91 403 33 121 89 385 65 590 71 386 25 400 97 527 44 383 31 127
5506 0.3704129709153457 2.0084708074456019 1.970763845838891 84 130 86 2.321813572200095 44 1231 39 1714 73 770 98 1531 19 1457
6325 0.53515364029202728 2.8950868761456396 1.3871899239319623 215 210 131 0.99238489322865409 41 1349 81 1995 19 1755
5915 0.91641021354411833 2.8451577538259469 1.7170407872388904 0 0 0 1.8192104743246644 100 857 41 230
6322 0.41766530161806031 2.3879398191557484 1.9249407790627304 55 108 57 1.2794446729111864 41 1961 81 1974 98 1873 19 1005 19 1870
6489 -0.2398689361515948 1.2426001886634499 1.4706198551382292 140 131 128 0.23348418402646304 81 1544 98 1447 19 1532 15 1297
4996 0.86806295096983754 2.8083474730520055 1.5703371678884235 102 75 32 0.032090273653846445 44 1462 64 1563
5845 0.61644204251831891 1.5549925045402198 1.6805353399169278 159 158 173 0.11633391410439731 39 1795 44 2237 41 1807
7263 0.15914587109154346 1.1391689321708569 1.3782321706536396 83 63 39 0.45468153549619394 14 894 62 970 15 1334
5770 -0.24994414318593058 2.2667852212019342 2.1241832147335407 116 139 68 0.19893539361976362 39 1177 41 1183 81 1207 19 1045 14 906 62 704 15 957
6252 -0.10924249380273883 1.1880954158063151 1.4289118889187233 219 222 237 0.18056776041806408 41 1641 81 1551 98 1456
