# 3D point list with one line of data per point:
#   POINT3D_ID, X, Y, Z, R, G, B, ERROR, TRACK[] as (IMAGE_ID, POINT2D_IDX)
# Number of points: 358, mean track length: 6.53693318378465
12077 0.57221514894386893 2.1568747861414184 1.598533444641544 112 108 106 2.0479119062427493 96 1666 100 1981 79 2887 75 2051 92 1934 95 1628 72 1412 82 645
25060 0.45245921195468641 2.0444683769192196 0.91202872271610158 107 128 61 0.71768292989288307 26 548 27 494
15063 0.52607509035753774 3.4088133554662741 2.4557413585147474 0 0 0 0.76596178668728032 49 1024 52 1908
11854 0.079623376982687746 2.7013156199653392 1.4984669157635693 54 90 44 0.21027339698699427 79 1297 92 1609 88 2248 78 1173 73 1884
13645 -0.040514916422846714 3.4831848552504843 0.60009012692156816 125 96 66 0.082728950803956008 88 965 73 843
10436 0.85086035481026345 3.3038050259085705 0.79002942955890421 140 170 116 0.050849609369020776 75 2834 49 2323 53 2668
12936 -0.35009434629357922 2.8765113963665208 1.4098422730809577 154 136 111 0.46932965703880608 88 2936 70 2546 55 2379 62 1171 66 1520 48 1117 65 1242
25919 0.46132735031811972 2.8402970681572652 1.0724358246814836 233 216 138 0.031973454567469202 33 1585 44 1695
14737 0.15374659795752815 1.3998591594921264 1.2162449866302403 89 86 78 1.9114250385447225 77 687 52 902 58 588 29 496 29 1148 49 427 93 784 86 431 68 541 93 1570 61 421 74 451 67 850 84 1265 56 270 84 499 91 2156
11528 0.074280048430301782 2.9056164466325125 1.0289823770468944 122 166 81 0.08510018642456911 77 1958 80 1972 52 1726
24511 -0.19567917620139672 2.7866445702537508 1.422385820367067 131 160 79 0.25173976529364367 8 405 6 429 18 210 26 227 1 262 21 293 23 220
12088 0.90709868321783116 2.3032374151246198 1.2247033981869013 254 240 201 1.2941384529749673 92 22 96 13 88 14 73 18
25071 0.041112845983774203 2.7819912409741709 1.7666339478268709 118 154 68 1.8322548328463257 18 641 26 243 27 537
8647 -0.24581672814839486 2.9203029339392286 1.149899729039477 131 150 79 0.20597331673860791 87 2752 68 2594 67 1237 93 1461 86 1232
21630 1.1517805853872638 2.9463983348167906 1.2902978664926177 255 255 250 0.1971493555178109 31 48 25 192
15074 0.3913995320253818 1.8196840751039087 1.3648629491680639 85 162 91 0.33270576738437091 52 1354 29 1089
12947 0.005763392931528946 1.6541707357484394 1.1386535706920866 178 175 125 2.1219626333873296 88 255 78 150 70 239 100 852 95 587 72 786 96 267 100 253 89 262 99 246 95 259 90 278 71 262 71 752 85 239 97 266 87 257 90 814 91 574 98 193 98 562 82 1792 81 244 68 234 68 532 67 864 93 497 84 153 74 461 49 380 53 210 78 542 70 1243 55 386 73 223 63 268
25930 -0.31063094603399494 2.8134832595649386 1.2410662614716093 110 125 105 1.239868108170415 33 964 44 1979
12094 0.80538421803678695 3.1146511946213655 0.82055921077258975 95 166 74 0.72441724165796861 79 70 92 71 88 111
25077 0.071512489944133992 2.599152836521748 1.5836672000299445 93 112 58 0.66818279018934723 17 577 36 1182 27 625
8653 0.30108762445545229 2.7994993511024724 1.1892768345473854 142 143 80 0.7671392793692634 91 2811 68 2656 93 1137 84 2694
15080 0.26803510956675269 1.5149482600326221 1.3013510675650017 202 205 218 2.065885225021086 57 1197 80 1537 29 1178
11871 -0.035363566687437294 3.0814921804107192 0.80907678678461425 76 102 30 0.39660388804969404 79 2150 92 1812 88 2629 78 1672
7990 0.19545668083863071 1.5862181905248798 1.2377519438930782 171 173 125 0.28993346369508888 87 2259 98 2040 68 2044 67 2388 93 1795 84 2102 74 1664 83 1893 86 1471 61 1830
14417 -0.23460026214367788 2.3983442970493476 0.89397814758178218 68 110 60 0.049530820662547694 86 1586 61 1644 58 1286
11208 1.0273396842849967 2.7251610368108046 1.2553448479462819 121 99 70 0.24974210150741841 68 1338 67 1602 49 978 77 973 93 1692 84 1426 74 1627 80 1068
24191 0.12165125600244878 1.4098991399067278 1.1731321492224425 120 85 43 1.8038732865077816 13 770 20 635 34 663 14 1149 40 680 12 463 47 611 46 781 22 643 3 562 1 363 21 518 9 541 23 349 26 800 21 521 2 274 18 467
8699 1.2022465906130162 2.9999013591038746 1.1296076483615545 102 158 84 0.4337221454729015 98 2718 81 2619 68 2911 87 3189 91 2940 93 2700 49 2342 77 2333 80 2225
15126 1.1496732268647283 2.9454166825975188 1.2680970034901664 108 155 97 0.086460729977399328 57 1424 29 1664 39 1207
11917 -0.088613290910904488 1.8410459470063731 1.1068491031023482 74 129 69 0.29586723883194388 79 2290 92 2313 88 2001 78 1904
2981 -0.3498559621187976 1.6403245580245764 0.87497196600200267 0 0 0 1.4786338029200194 96 2033 95 1748
9408 0.55745679236967227 1.9366047946641765 1.5712188983526101 209 207 215 0.44594020415249885 68 1469 93 1820 84 1453
22391 0.38074836053170247 2.6105850579291854 1.7539472669990677 227 207 119 0.34161730481680813 35 473 5 406 13 420 37 404
15835 0.60714957898497224 3.3906676103932543 0.68597604212426799 130 192 125 0.071001997457529178 62 453 66 459
12626 -0.057423044944343568 2.7240364488691986 1.5025460321417869 197 183 104 0.16183107140908257 79 1190 92 1105 88 1002 78 1022 96 2448 99 1722 55 1836
25609 0.75340453892994041 2.9456927457915159 0.94853703232587216 224 222 141 1.7901927698573699 33 1042 54 1032 44 1806 54 1034
12105 -0.14208786534741261 3.4344358752529471 0.78722684317988689 188 165 131 2.5619537286377829 79 373 92 478 88 190
25088 0.12186429948677426 1.40268458340129 1.1822522337033075 94 65 38 0.61891353648839587 17 556 27 673 50 1440
8664 1.172789295537763 3.7742687378533208 1.4384791062824522 0 0 0 0.13819070238219405 97 1882 68 2817
15091 0.57000301282809074 1.9241477950176293 1.5526581656038745 222 220 230 0.25316062796905603 52 1550 57 1348 29 1261
11882 0.29387407809411403 1.4831590403183101 1.2682022321809365 141 134 133 0.11833811820283127 79 2019 92 1962 88 2987 78 2909
24865 -0.2207221451322455 2.4164088387019063 0.84118145774999764 104 188 89 0.21741498344422469 36 131 17 89 50 182
8665 1.2357923043317347 3.1415499176750958 1.1489090654615808 233 213 200 1.0813603072570555 81 1746 91 1980 68 2829 67 1886 93 1643 86 2235
15092 0.5761017230518749 1.8879605452237824 1.5485235292367532 221 223 238 0.26402245645671835 57 1168 29 1272 39 1023
11883 0.30211146161624092 1.5085961372182191 1.2824539375920523 163 167 180 0.17650393605987924 79 1971 92 1967 88 1877 78 1792
12110 0.86449157846360503 2.7437295644337394 1.4496991897784479 171 170 113 0.23274699294270151 92 211 88 229 78 146
25093 0.53527593578082933 3.2630952675284277 2.3368003282816243 0 0 0 1.7824001360550517 3 511 25 177 12 529 6 293
8669 1.1086126242795871 3.0029440058683203 1.0396187734420221 249 238 158 0.10139846154982086 91 2989 68 2880
15096 0.98196725232619486 2.7971653211392944 1.5255395626283008 212 208 135 0.26837080893108206 57 854 29 1379 39 1191 76 1473 38 885 10 588 35 1042 42 903 14 941 5 1234 13 928 37 1206
11887 0.47132255235003379 1.555584995987892 1.3878134832061868 222 226 241 0.020759799015401446 92 2000 78 1820
12119 0.088823999170268925 2.6310472308326429 1.5482578214046683 165 169 96 0.39922855407211549 92 164 88 291 78 197
25102 0.13672292118337401 2.6535618283530349 1.6412212966630166 115 171 81 0.2515202585256105 22 842 3 735 1 573 26 589 21 653 9 685 23 556 11 762 15 731 16 936 43 866 46 746 20 761 18 531 2 675 17 562 27 389 24 1525 8 874 36 1222
8678 0.3320735538213081 3.1880244841468479 0.64154963368520412 116 186 90 0.16506587075098322 98 2925 68 2974 93 2867
15105 1.0378648749754518 3.0274299171243451 1.6038173390347119 94 72 51 0.24494936717511037 57 1106 29 1521 39 960
11896 0.72720880121256293 2.74501047222636 1.321923195535222 81 112 55 0.73968288083366818 79 2689 92 2116 88 2451 95 555 78 1186
24879 0.36603964498214642 3.302453205599893 0.59097107495537171 112 219 112 0.34418788669029343 36 364 17 230 27 229
12978 1.2004231477668716 3.7345439326249505 1.3841579804931621 1 1 1 1.8453676039696445 80 44 52 22 86 75 58 34 57 44 39 58 76 59 38 40
25961 0.34314136862208927 2.7776983466756384 1.1895022003720075 90 103 59 0.06588036642180542 36 217 50 362 64 479
12155 -0.27684555232445807 2.4410912487297596 0.8256868378003247 66 108 50 0.21321231333800836 79 674 88 640 73 384 63 247
8714 1.3088951158724524 3.7538015157148941 1.5116877266163382 255 255 255 0.70380904420333668 68 1740 93 970 49 1132 77 1386 80 506
15141 0.61441848971194024 2.3783216026754146 1.7911063664269067 0 0 0 1.5037445897534263 86 337 61 1175 49 316 80 289 52 268 58 296 29 147 77 883 57 168 39 144
11932 -0.2934300117379271 2.3521626524409442 0.98305849197057704 242 232 145 0.10139254317048091 79 2389 92 2403 88 2292 78 2217
24915 0.71055635731202982 2.9316480909357772 0.97817745125773914 117 211 101 0.53434588348617229 36 399 17 402 50 303
2996 0.59930107303442892 2.170040739157256 1.6074142373347911 105 98 93 1.9230246334312024 100 1226 95 1847 79 956 75 671 88 1422
15850 -0.38279018964348976 2.6831836999811016 1.3944748779613922 250 226 174 2.0019589120260064 62 730 82 438 66 506
12641 0.44677587548680125 2.7174563570854584 1.3718098250292199 38 86 44 0.74355011862636256 56 95 83 110 86 102
25624 -0.34068733771793258 3.0389105014854843 1.3415959478049331 0 0 0 0.80602679253131404 33 932 54 1155
12161 0.89924607359852127 2.7251525380656778 1.491626103151247 160 168 99 0.1708836941001399 79 1607 92 742 88 699
25144 0.74132030026054474 2.8322502528368987 1.1331280447991754 74 132 61 0.14360772156206134 36 150 50 208 64 211
8943 -0.17810536365837171 1.71906499606103 1.0982475686640627 61 114 63 0.17367857420246005 91 1399 67 1457 84 1499 74 1433 56 1388
15370 0.063277391481589423 3.4738897688952517 0.59790467018065352 203 182 164 0.20797792939951162 41 127 62 175 66 177
12168 0.52690427554101116 1.9250786624498624 1.5311894734401048 198 198 209 0.13633857144583514 92 830 88 784 78 786
25151 0.44509400708618668 1.4737106079983708 1.341187559124674 95 73 45 1.4920888182231866 36 122 50 257
8061 1.0420464747475811 2.9903489890190476 1.0225937793809947 80 130 74 0.13974036881279556 91 3210 98 2736 81 2913 68 2753 67 2702 93 2735 74 2730
14488 -0.13185162699362582 3.0596585863257744 0.71268383769578625 98 78 58 1.4902169314827891 97 2618 98 3110 93 2551 84 2658 61 1829 97 713 87 681 91 442 98 514 81 486 68 315 67 667 84 615 74 668 49 470 77 570 80 654 83 630 52 538 86 1763 58 1019 29 866 39 1317 76 1319
11279 -0.16078068789062491 1.5505922021113894 1.0463283606825766 181 186 202 0.46469264773934632 49 169 77 165 80 161 81 184 52 140 58 97 57 320 29 155 39 258
24262 0.50304316508572111 1.5230833721296089 1.3817812132114895 238 238 238 1.6830475775682538 15 640 2 836
12920 0.10543868200032075 3.25553967331104 0.57999277009807382 92 154 69 0.37534954455654557 88 1665 70 2342 55 1071 73 2245 63 1038 66 884 48 1786
25903 0.28672541805906293 2.8650026403938527 1.0330181875752711 75 108 55 0.2094149750681282 33 1333 44 1547
9479 0.16307081912348959 2.6736815979376143 1.5319778549007728 65 97 49 0.16074006186034703 67 2188 93 2406 84 1130 74 2582 56 1816 83 1794
22462 0.80239854315090575 2.1376644683202155 1.3722443705281118 100 165 87 0.19891159280461426 14 745 76 1106 5 914
15906 0.032127331943665911 2.8638621924789867 1.1176348456476335 97 158 78 0.52496108171505851 62 819 66 782 48 725 65 1270 59 330 28 811
12176 0.49369313774573009 1.5199743751028771 1.4194902826914688 251 253 255 1.0453927291426686 92 866 88 826 73 1359
25159 0.62765399841317604 2.766975327141354 1.241330794473354 51 86 39 0.20720448212394713 36 206 50 292 64 346
15385 -0.20936306301829621 2.6351369765768786 0.68750692098125243 191 167 131 0.4332503428296543 41 349 62 300 66 321 48 296 28 266 7 425 11 509 16 634 43 595 46 484 22 951 19 661
12251 0.10910535761039811 1.6772105524737846 1.1741334454150258 74 140 75 0.71627105194982821 92 920 88 1672 78 873 73 1269 63 1495
25234 0.89212278530551858 2.8378912687634443 1.2019504825385463 84 150 65 0.20938412370379375 36 697 50 784 64 1118
13744 0.24266132716523947 2.7957551154893956 1.1988090654900463 67 103 48 0.034537811706833524 88 2213 73 2619
10535 0.12101357581961303 3.5249672938562226 0.62194053441947816 100 74 51 0.11574599113397135 85 1004 53 1183
8045 0.88804966380030648 2.8425963251161859 1.2035712634326567 96 140 77 0.35076833653484757 91 2620 98 2670 81 2290 68 2965 67 2664 93 2892 84 2522 74 2453 49 1213 56 2389 77 983 80 1853 83 2292 61 1509 86 1069 58 917 52 1005 29 684 39 1626
14472 0.79918337676933893 2.937152923011884 0.99350640498871767 78 128 66 0.17753811442096432 86 2341 61 2465 58 1669
11263 0.48250626380680761 3.3704185932794459 0.64915558611995539 111 138 85 0.43107096055475458 77 82 80 46
24246 0.84616889564058106 3.2524391363512501 0.71291889933607155 164 186 110 2.0052701417247936 15 612 2 572 36 823
8422 0.23171583497920373 2.9863443716935021 0.86342538431323579 234 217 129 2.109620658468768 97 1316 94 1530 87 1758 91 1277 98 1247 81 2236 97 1241 87 972 98 1260 68 1068 68 1393 67 1119 67 1761 93 1175 84 987 84 1522 74 982 74 987 49 2206 56 960 56 1042 83 923 83 1087 61 619 58 1726
14849 0.61317867919783642 2.1601946393916704 1.661992164164485 254 254 255 0.18493399123850007 80 1298 57 1025 39 756
11640 0.074917489496838546 3.6298460504274273 0.63650378551273401 2 2 3 0.28866056082783409 79 295 78 369
24623 0.59963302088192705 2.817685745213609 1.1385016348963914 73 126 56 0.15282465179237351 24 255 33 195 54 231 44 252
12647 -0.11959622040070292 3.1259141150635896 0.70157805842375642 75 56 36 0.68388570736318 56 242 83 226 61 456 86 1198
25630 0.86080129457522003 2.8147692564973887 1.2258443288299046 214 205 127 0.44783720784032655 33 1186 54 1225 44 635
7713 -0.0033812592247308669 2.9198445529815964 1.0295270810714705 106 140 69 0.14881031974729797 87 2849 91 2819 68 2707 67 2173 93 2424 84 1919 74 2232 56 1822 83 1751
14140 -0.2557440958025976 2.9484739991519486 1.057556379507586 159 181 89 0.5379700582116379 86 1223 57 1635
8766 -0.12260753632621195 2.6922086055465 0.77723753242867899 1 1 1 0.75915193007629878 87 329 67 297
15193 0.77885546254385418 2.8847677009285699 1.3090138008198984 252 255 154 1.7558435785800577 82 273 41 161
11984 0.86084979639325832 2.8880221990762296 1.0910286959464666 234 222 145 0.038094882090240353 79 3178 92 2693
24967 1.1189363739214082 2.9482842480814373 1.151421351266116 172 184 122 0.17910692773293616 36 803 17 730 50 1037 64 1570
13027 -0.33688702196450876 2.2681686035171094 1.1439976827289693 107 86 62 0.80050591733637066 77 1259 52 673 86 1358 49 661 61 1334 58 635 57 748 29 945
26010 0.52599822873967084 2.8470803091396739 1.0269814305457361 121 145 83 1.3948570665122244 33 1117 44 2282 64 214 36 241 50 206
9818 0.32972366810513293 3.229382884120672 0.62279931501176689 106 188 87 0.21424532031251323 93 2804 84 2355 74 2716
22801 0.60778403056244368 2.6908081958310222 1.9262497750118377 0 0 0 0.052215228993597602 5 7 35 5
8093 0.096488813817157487 1.8359319622314267 1.1840698708788504 154 162 114 0.22168135720988819 87 2096 98 3106
21076 1.0435542871701911 2.9504917007825089 1.5073549063181209 250 248 240 0.93173164292565103 35 992 30 864 14 1116
14520 0.8049611402857797 2.7018463317568053 1.4611566075252873 73 130 67 2.2176737781152935 52 75 58 65
12208 0.51538786798904024 2.7097685079725933 1.4068437597796899 88 118 71 0.031140317309296006 92 782 88 1202
25191 0.44232588958247404 2.8047200674630579 1.1429850878239343 68 92 51 0.47721329433849946 36 630 50 440 64 1123
12283 0.16601508734650092 1.4215753412077472 1.1782280509961831 203 202 212 0.14208056616633999 92 1975 88 1872 78 1802
13776 -0.17263710343606822 3.0895993316097963 0.73068271214682701 73 52 32 1.6126672851208927 73 33 95 102 63 35 59 26 45 23
10567 0.46191717377507979 2.0191120876298836 1.4829126274931219 66 96 53 0.18898539248014776 49 1844 81 2003 53 1842 77 1753 80 1573 52 1548 58 1443 57 1622 29 1254 39 1162
12216 0.97439215677896929 2.3031877861298469 1.1789349257395707 255 255 245 0.054472390043326734 79 1568 88 1383 78 854
15202 -0.41787713411549204 2.976639184411344 1.6306111926800464 5 4 2 1.8624755567308267 71 1269 41 430 48 1723 65 1416 70 2647
11993 0.069668792419161921 2.9754466581162009 0.91858041788014 84 111 59 0.13967357821217732 79 3085 92 2786 88 2923 70 2609 55 1926 63 1752 73 2443
24976 -0.083273300931717142 2.7075134774881673 1.5577508117120427 153 156 83 1.4410719219459436 17 634 9 653 23 665 2 785 21 645 27 576 2 820 17 705 33 1430 36 1117 6 653 15 897 24 1553 33 962 50 1486
8439 0.95664879731246266 3.4361833815393483 0.94235728362074667 171 159 141 0.70853842433389724 87 2027 91 3078 98 1772 81 1654 89 3050 85 2061 68 2836 80 2080 52 1915
21422 -0.13917794451321228 2.8278550172561063 1.6705408529750747 0 0 0 0.18107433991089555 7 1264 28 1181
14866 -0.41360616663848337 2.0888243744098629 1.0925466040762406 1 1 1 1.2078244828770228 49 2635 57 1178
11657 -0.39445505458762492 2.3022029878386863 1.1045417581183354 248 222 170 1.6465629714800645 95 173 92 208 88 119
24640 0.43069847547914181 3.008642830363367 0.82158951281714365 234 220 142 0.70359404887954236 24 251 33 292 54 345 44 402 64 399 36 404
12217 0.93515087861598134 2.4056190617912514 1.1333266966291069 139 125 104 0.72763333637623895 73 1272 63 684 55 494 66 378 62 376 48 359 59 557 45 584
25200 0.39493468414666644 2.8529482752633588 1.0441703194633019 87 131 65 0.14410984834824203 36 330 50 453 64 497
12224 0.89167022885500047 2.7362229982733299 1.475850888459993 70 109 57 0.31992989947588507 79 2610 92 747 88 1435
25207 0.42689886888999995 2.9506620580818992 0.88554882297470616 103 171 81 0.074611765413752959 36 389 50 509 64 635
14881 -0.31906828814741789 2.3225882549205448 1.1153432687589415 236 229 232 0.50765174133503377 52 1105 57 1378 39 1148 76 795 38 864
11672 0.030628701094114533 2.8347656150703204 1.1972448658606674 184 166 99 0.22742410646026145 96 308 92 307 88 263 78 256
24655 0.3350130433214919 3.0180897756080176 0.8082581245147169 106 186 85 0.19476533862488041 24 428 33 392 54 449 44 349
12250 -0.088424885804530756 3.2638484846925864 0.65450505203619369 141 173 88 0.32376544002069063 79 1738 92 1756 88 1642 70 1570 55 1430 63 1305
25233 0.54051959516374903 3.2631820562173233 0.58264383007835363 1 1 0 1.4837284998289613 36 821 50 774 64 1166
9032 0.20258644280915439 2.7157317334808617 1.349643931408731 155 149 84 1.9233274199116566 68 1277 67 2134 84 2028 74 2737 67 2141 56 2111 83 2117
22015 0.34653370805522915 1.4651948661067948 1.2954420237686786 255 255 255 1.5014449141758905 12 693 22 450 30 530 40 446 46 1003 31 428 42 987 35 815 20 403 34 687 1 125 26 241 21 490 23 560
15459 0.15180314501907322 3.3109289802310147 0.5418350274699798 192 235 138 0.27685297513414275 41 805 62 741 66 714 48 708
12257 -0.082231213544777554 3.5172102760915789 0.68490506398045947 200 177 141 0.12125801650682601 90 968 88 1694
25240 0.38776309131278075 2.8795807963296478 0.99927455970147061 80 130 65 0.083466919533917591 36 642 50 797 64 1176
12261 0.13050263411872734 3.072156616343368 0.77192685260430949 201 189 115 0.24057000106973281 79 1841 88 1727 73 1109
25244 0.87100041477094436 2.8071302124827513 1.2444445340299826 217 204 123 0.3243112771686526 36 638 50 810 64 1216
15247 -0.28271074909164651 3.3383339472468401 1.700486316263502 0 0 2 1.3266583312932458 90 1707 41 1265 62 1072 65 873 55 1432
12038 0.80564246290909824 2.9660856603130692 0.95412270939661614 184 190 119 0.31713361333892182 79 2333 92 3105 78 2246
25021 0.99656640561511545 2.8952918397317622 1.1700377843997563 237 235 157 0.14286324852463761 36 384 27 197 50 505 64 528
8111 0.32559683657757321 1.7849248073884962 1.317987500434554 103 137 84 1.3079117021629012 100 87 95 91 72 143 82 178 71 176 75 81 85 76 97 50 94 49 87 66 91 45 98 52 96 79 89 90 99 40 79 97 81 43 68 45 67 49 74 44 49 39 53 76 56 42 77 54 80 64 92 102 78 40 52 52 57 59
14538 0.54456563216172904 1.856926784077221 1.5418706273037848 214 218 232 0.41081910994188353 52 392 58 341
11935 0.22442479486870703 2.7836259442270443 1.2318161974061603 142 140 82 0.095864089825919707 79 2353 92 2409 78 2145
8494 0.74353650273732153 2.815252418939945 1.194263113112396 96 132 71 0.1988029168266508 81 1029 68 678 67 612 93 557 84 564 74 537 49 996 56 498 77 931 80 824 83 468 86 554 61 483 58 746 29 995
21477 0.96586139661580805 2.7416296457328433 1.4921556453021902 127 168 108 2.3316358113664624 10 510 35 658 42 628 4 611 42 795 40 538 31 709 25 542 12 628
14921 -0.16762896167745264 2.6147822594796892 0.71966606135336253 185 148 110 1.5101326547288736 77 10 52 5 58 9 80 9 56 4 74 2 61 3 86 8 57 11 83 4 29 7 39 20 76 14 10 7 5 8
11712 0.9627046626638891 3.5241829197913028 1.0066841177674921 251 246 247 2.1013085683375756 79 274 92 600
24695 0.20035481596523069 2.8935272335787867 1.001364555424836 180 176 103 0.43932907701259538 24 404 33 567 54 434 44 914
12644 0.05534407489708796 1.6672237698978429 1.1499989693274792 79 152 80 0.37783742799876818 56 268 83 177 61 276
25627 0.75143019610757589 2.8434793066369153 1.1141193603962827 80 137 60 0.23056379471767177 33 1178 54 1202 44 1028
9203 0.71720640778483169 2.7921925653320381 1.2399644575201607 115 145 74 0.21854112269631501 98 2343 81 2316 68 2411 67 2979 97 2465 87 2828 91 2578 93 2865 84 2383 74 2605 56 2525 83 2477 86 2381 61 2388 58 1659
15630 -0.26515622213690682 3.2783813827116841 1.0667838175039985 221 197 152 0.27132835084355128 41 834 62 1813 65 1366 28 1312 7 1185 11 1073 16 1039 43 1029 46 881 22 929
12421 -0.23182760205809358 3.3710085823561737 0.86300230940891909 13 11 8 0.64570459740292785 79 2872 88 3006
25404 0.74187232623092347 2.793528343286904 1.2270813518478032 212 200 123 0.14506349898719284 36 869 50 1542 64 1785
12272 0.68913480493010748 2.1107656327398905 1.425230877274142 222 206 122 0.073802971026799238 92 1932 88 1819 78 1751
25255 0.15549029569881206 2.9409482420209612 0.9196356387832384 83 134 65 0.43000347424836816 36 633 50 842
8831 0.63600885173523469 2.7454129638546756 1.3293783921151963 53 94 47 0.24537285481848983 68 692 67 689 93 632 74 619 56 972 83 955 61 546 86 559
15258 -0.30933751853195313 3.2307943629548213 1.6190604231143093 1 1 1 0.15922168480841509 41 1470 66 1850
12049 0.40853749466584816 3.0759093052019879 0.78126633630889752 65 111 56 1.4006365833203176 95 57 79 28 92 38 96 25 99 27 94 25 88 26 78 22
12799 0.44163385922615667 2.619085863188507 1.7507146880380111 76 125 62 2.8186973281295584 68 488 67 504 93 454 84 467 74 439 56 253 83 204 67 818 93 735 84 1174 74 1463 56 948 83 890
12949 -0.17882175254472527 3.4496752678588307 0.86084400197195299 188 162 127 1.196675036853216 95 1832 90 626 82 398 72 381 71 387 70 408 96 3115 79 2865 88 2697 55 350 63 470 41 195 62 181 66 182 48 170 65 139 59 252 45 439 28 168 7 300
25932 0.26600595682270689 2.6816285813365979 1.4709745699532675 100 123 67 0.061110006869579285 54 1895 44 2131
12952 0.20103799333474737 3.5448054300379828 0.67071321470071887 2 2 2 0.70204081983966538 70 1455 90 963 82 790
25935 0.49846246996196308 2.6455603629218158 1.5850535996116208 126 131 84 0.0052810868612924245 54 1486 44 2153
8035 -0.15835573693076668 2.5279097133190898 0.74134167207566914 249 246 237 1.2186103983879986 87 2358 98 2577 68 2105 67 1983 84 1804
14462 -0.33008438929753264 2.2160290588258729 1.1594508979795355 201 202 214 0.07500034450274766 86 1609 61 2337 58 1382
11253 0.032553220391602418 2.6971979962722599 1.5353604165426917 144 147 78 1.8014009875219894 97 2762 99 2984 94 1705 87 2776 91 2781 98 2644 68 2595 67 2028 93 2458 84 1308 74 1337 56 1311 96 1441 99 864 95 2744 79 1302 94 2767 87 2032 68 2593 93 2451 67 2037 84 1806 84 1807 74 1402 92 1637 78 1639 83 1302
12969 0.26374606772407794 2.7053285110295286 1.4102347182413963 63 111 52 0.17766344425497596 79 517 92 455 88 490 78 562 73 451
25952 0.74124269722955805 2.799868514496286 1.2275076176878901 217 210 129 0.14071207381804349 96 2582 95 2739 79 2651 92 2523 88 2466 78 2423
9528 0.60377379341098669 2.9698311765122067 0.89896216510041305 223 213 130 0.40908175577283779 68 3009 93 2814 84 2348 74 2681 83 2461
15955 1.0788040716587926 2.8925438721064456 1.1816525721801734 0 0 0 1.3244120221096887 41 1173 62 583 66 996
12746 0.35006845009202137 2.7631163389420168 1.1862490345339152 76 96 53 0.075503318643242362 56 2254 83 1986
25729 -0.34605759988730317 2.3173045485986998 1.0779799417491187 155 120 87 0.29446283043532578 33 727 54 1823 44 2049
12830 0.37628647301015394 3.151691351381424 0.67443408059605159 153 189 105 0.54708800210893238 88 573 70 589 55 584 73 558 48 1248 59 764 45 536
25813 0.15799769875374642 2.8328676512852811 1.1605996975554149 53 90 43 0.50446882830999473 33 33 44 53
12514 -0.29308349355888663 1.7279421683165375 1.0365639900060521 210 210 219 1.0928698701430506 92 1472 78 1470 55 1161
25497 0.38944468570004931 2.9270492859446882 0.92264955537556126 76 133 62 0.40594228321508014 24 385 54 500 44 542 33 895
13170 0.58107156285655126 2.7657718477399755 1.3175180635258583 132 145 86 2.1481005897510754 70 21 63 13 45 9
26153 0.19189578427974563 2.9286517386348319 0.94050315260628303 93 142 69 0.063175176262937879 51 538 32 544
3534 0.17902921753676504 2.9278874077875372 0.97118359414887634 82 115 57 0.1572020475038225 95 3191 79 2144 90 2345 92 1459 88 2819 78 1963 70 2040 55 1403 73 1128
16517 0.62586580776270251 2.3948389474978384 1.7903452212345794 0 0 0 1.518899890842091 71 2423 80 690 39 781
9961 -0.3073332306651736 2.4557685486071956 0.85098135451835299 148 181 86 0.54208494761647419 84 521 74 500 67 759
8404 0.85528046909748179 3.0749117843499567 0.85005985797244743 112 162 88 0.38039105256053707 87 3172 81 2770 49 2493 80 1783
21387 0.48775357679096204 2.6173934423937624 1.7123426601540186 89 163 82 0.12738383082101987 12 657 4 425 25 862 47 716 20 741
14831 0.8214555967811481 2.3704894531332315 0.82091478416786934 1 1 0 0.80732447289715448 52 1033 57 781
11622 -0.015463289836206194 2.733648590485056 1.4818914116368227 49 87 39 0.38532442896816904 79 66 92 27 88 19 78 16
24605 0.22856178746352673 1.6964820193947776 1.3488140673163382 199 183 143 1.2042038820466501 36 118 33 122
12629 -0.46530848960698834 2.2011161406182778 1.0791797695469956 0 0 0 1.7645096873546655 92 7 78 4
25612 1.0612172981366355 2.920815347327292 1.1296262718223817 62 101 53 0.10797163196137038 33 699 54 1044 44 972
9411 -0.34409805105870261 1.8161305134170767 1.010592097017714 163 164 174 1.7553843608800035 68 1994 93 1866 61 1635 56 1703
15838 0.03644207489135657 1.9555809480825865 1.1915800953573581 201 217 160 0.54822602323613989 41 320 62 351 66 466 48 525
7695 -0.017826592523239992 3.2047171728507919 0.66859033776651244 97 134 63 0.13831940206430904 87 2686 91 2691 67 2947 93 2250 84 2610 74 1089 56 2221 83 2395
20678 -0.090405657229178024 1.4427528966132643 1.1239926879831745 159 131 93 1.4425367128768425 35 238 40 684 25 483 31 315
14122 0.78109288866450488 2.817605331864522 1.2090112098459189 64 111 58 0.086817917832066868 52 1592 86 1050 61 1066
10913 -0.30209552590639877 2.487570530943743 0.86843937362894974 193 201 128 2.6558147063966784 97 883 77 471
23896 0.11994846362254516 1.3365401454396602 1.2336449212074274 0 0 0 0.3907982444394974 9 162 21 257
12182 0.80478357674378453 2.3563324167950639 1.2877296957942925 0 0 0 1.4777571928787434 79 2127 95 492 88 848
25165 0.018022784594768661 3.160847567753037 0.73129107612722977 186 180 98 0.25295533762448696 36 154 50 319
8247 0.76684914808943105 2.8488865591654151 1.1316785230806168 158 182 99 0.57793113842168931 98 1188 81 1097 68 1040 67 1828 74 1195 49 1182 77 953 80 1735 83 727 52 856 61 1093 58 957
14674 1.2391505886085721 3.7029943343004108 1.4713738677098074 253 251 251 0.63241348742733761 86 1350 58 1865 29 1027 39 938 76 863 38 754
13181 0.53676666428829467 2.9842084682690735 0.89580214418859128 155 208 111 0.84801789106020675 70 113 55 88 73 54 63 47 45 40
26164 0.63771373388029395 2.7996954731060639 1.2027798533064207 53 94 48 0.17027475646391049 51 652 32 653 69 795 60 860
3545 0.21722756287663272 1.9700402932778147 1.2823664804709145 104 158 99 0.37161159342428746 95 964 79 2238 90 905 70 1242
16528 1.2641062143773503 3.3245348086235116 1.2677498425122995 95 76 55 0.50405282667969886 29 1000 57 1574 39 912 38 377
16399 0.16128506365174236 1.4179308249804521 1.180909239775096 236 227 220 1.838345656509031 62 446 48 556 72 249 100 190 96 161 95 191 82 449 90 272 71 247 75 169 85 174 53 118 70 172 55 212 63 106 66 564
9972 -0.18633261139547486 2.4699417318002257 0.81336339773019972 222 225 154 0.67735002396965016 84 696 74 681 83 779 56 432
12194 0.11431381843849964 3.3112072561406221 0.52506356149716527 91 157 80 0.46271093528484869 92 1022 88 955 73 2268
25177 0.74232267511906458 2.7976086114150038 1.191842474323755 94 128 63 0.23152203182066575 36 349 50 404 64 323
8753 0.038566604998167102 2.7807633952746267 1.2851700354400104 145 147 79 1.4201637858638243 68 805 67 212 93 434 84 186 74 190 56 165 83 170 61 374
15180 1.0780638105872375 2.8334012525848031 1.3114452769374807 80 62 43 2.4288274538794234 52 2039 29 1411 39 1360
11971 0.18022477988384975 2.7271900743565309 1.3777708495261474 147 145 85 0.10914226859037941 79 2407 92 2629 78 2888
24954 0.2361136699119511 2.6257101570706669 1.7105345348687921 182 173 99 0.23799701251804595 3 841 18 546 17 597 27 724 50 1527
8246 0.083361723862679579 3.5202780872113824 0.60599851215182232 174 169 173 1.1833354793976869 91 1053 81 1089 68 3102 49 1192 77 1801 80 1830 57 710
21229 0.60074813413023587 2.0542124356918663 1.6136662589026753 241 237 235 2.0979849983240371 42 308 12 521 4 717
14673 1.1636210772617077 2.9518365253423684 1.2278354725059841 72 127 69 0.06015241966682866 52 1871 86 2304 58 1844
12471 -0.16246820877473561 3.2899492340569392 0.76185230755258826 199 174 140 1.1872030622262493 92 142 78 372
25454 0.99191217445404156 2.3559106015385867 1.096618263704036 0 0 0 0.053762357255837806 24 1003 54 212
7537 0.073733323867920517 2.7412493354167862 1.378656749493268 172 159 89 0.10438967606402548 87 1878 91 1724 98 2675 67 1342 68 1584 93 1435 84 1128 74 684 56 614 83 603 86 1252 61 1279
13964 -0.38502730512323002 2.2576471500018305 1.13993579536533 121 99 68 0.3348411339819552 73 1960 63 1798 59 1469 45 1487 24 1496 33 758
10755 -0.11112187732530383 3.1076855020370053 0.80152272907803512 206 195 195 0.62261072166413189 93 2541 56 1829
15858 0.64243786486085253 2.9613084651201085 0.92968372212964534 255 255 182 0.13225639533578942 62 338 66 530
12649 0.23435420727541156 2.6858448489530677 1.4604496821554578 59 102 50 0.42349126156218431 56 234 83 240 86 270 61 257
25632 0.95620757395364986 3.1305419383907336 0.83644628627946749 139 162 79 1.8709282147148372 24 977 54 1234 44 631 64 1046 33 1059
12705 0.48969701756129846 2.62691620272326 1.6668594944455546 105 111 64 0.24831241430065043 56 1036 83 1098 61 986
25688 0.045089911545959413 2.980200515222116 0.90553022707700859 208 193 116 0.10456104638118451 33 665 54 1479 44 1520
12780 0.3756785485149185 2.7638996619901 1.2708960325521836 138 131 80 0.14203804471039225 56 2248 83 2594
25763 -0.43431621890230487 3.0679400624240585 1.6372625642106797 217 183 113 2.4099763991520975 11 1016 46 852 19 993 15 875 2 835 26 688 21 675 17 645 27 661 42 876 20 905 14 915 18 640 11 1014 16 691 43 659 46 1007 3 748 1 711 9 703 23 643 25 886
7846 1.3105492191762604 3.7017668760120159 1.4669521851591456 7 6 6 1.907013289252856 89 3032 100 2653 79 1447 71 2633 97 1335
20829 0.3696163041566754 2.6444347292095554 1.8435570684147105 179 172 92 0.098480658645211425 40 786 31 772 4 855 25 801 26 752 1 798
14273 -0.17187562673225237 2.9176682667805647 1.1082768771274041 72 125 56 0.84894873906205004 86 207 61 199 58 337 52 584 76 216
17491 -0.27585136230764989 3.0348419107397859 1.0750285448778811 173 158 84 0.34900694907976648 28 201 7 223 46 189 22 251 19 222
4508 0.56848951119272528 3.3794213508180579 0.65688646183022614 59 103 55 0.1380223376600152 100 2763 72 2831 82 2775 71 2866 75 2600 85 2660 53 2678
11064 0.45282989314657246 1.6916947717323509 1.4270646192034151 46 63 37 0.14220664190089508 49 1644 77 1429 80 1458 52 1301 86 1686 58 1520 57 1786 29 1081 39 1069
24047 0.88023911622879025 2.3708050404581127 1.1914405903972232 158 137 104 0.33685244509194601 45 626 24 443
8097 -0.006951862674378472 2.5877110331998212 1.4716437374807609 188 188 196 0.36976126404567655 87 473 91 480 98 338 100 239 89 240 75 216 85 220 97 252 81 227 49 216 53 208 77 207 80 218
21080 -0.31218934721278957 3.2294528780073568 1.6104917431857715 203 212 223 0.20757642001265955 42 1042 30 887
14524 1.2627567536779192 3.3442863618461027 1.2082528297289374 208 196 178 1.245278356523281 52 100 58 210
8098 0.041858511658606483 1.4005001876114618 1.1051407252616416 237 209 161 1.5607415418968857 87 560 91 560 98 367 100 485 72 817 82 397 90 432 71 396 85 339 97 373 68 546 67 552 93 315 84 315 94 2123 74 294 53 464 56 188 57 181 41 395 29 113 62 415 66 368 39 139 12 714 26 490 65 1045
14525 0.59081569954381219 2.5700931047752347 1.8052560283990133 211 218 234 0.15521247932962276 52 234 58 217 29 190
11316 1.1382206316393588 3.0640645120296743 0.91536095302542853 212 219 123 0.04913542268105156 77 1069 80 487
8435 1.2028610798974531 3.2510928717435252 1.1144556647798425 222 227 244 1.2676260526551222 96 1473 99 1108 90 2842 100 577 89 645 72 643 82 1003 71 983 75 343 85 370 81 273 97 449 87 678 91 645 98 418 49 269 53 241 77 225 80 263 52 333 57 263 29 384 39 514
14862 1.0991088626514309 3.1003409447607133 1.5570967563935854 0 0 1 0.67744395741208452 80 2076 57 1137 29 582 39 553 38 365
11653 -0.19239156440919702 1.8087246853911614 1.1088536106964821 117 139 89 1.9307133170771102 79 157 92 174 88 137 79 88
24636 0.33989587267313015 2.7852889533865453 1.1896994984176266 80 92 52 0.10773385113376044 24 413 33 268 54 310 44 359
12213 -0.35641477096652702 2.317462585795683 1.0791936364183943 255 249 176 0.82327678014861405 79 1108 92 1196 88 1314 70 2286
25196 0.16755924858640608 2.9044785109200375 0.99237827234220177 81 124 60 0.48289273653651299 36 622 50 448 64 570
8772 0.21786494913595247 2.7707610194289254 1.2561265091264506 69 121 56 0.45336271312924553 68 317 67 312 93 292 84 292 74 278 56 229 83 243 86 370 61 253 76 280 38 883
15199 0.71786267215223476 2.9008010709268803 1.2073611737433478 127 251 123 0.30883969414007739 90 171 41 367
11990 0.2525639483284135 3.1327900013603345 0.68549391042924313 109 143 75 0.11516747576083027 79 2825 92 2762 88 2590 70 2559 73 2446 63 2251
24973 -0.26087341259245633 2.7811993366034882 1.4846299070818065 174 177 98 0.63568741892930403 20 781 34 854 8 669 26 582 23 406 3 674 6 625 18 319 36 1231 9 753 17 366 22 481 15 849 2 396 27 574
12887 0.18308802116313075 3.3765458793532663 0.5786498470657141 124 160 105 0.17238364295092964 95 1051 70 1564 55 1441
25870 0.63660412564961755 2.7600092182204792 1.2659690318864942 141 137 80 0.18135018525827881 33 436 54 939 44 841
7974 0.74898567294786023 3.4448388856964711 0.75200954460855629 87 61 36 0.37323182048265285 97 3034 98 1858 81 1735
14401 1.0125538497684892 2.7627694675933463 1.4321806933137915 77 118 60 0.62567551339590288 86 482 61 1477
11192 0.86336652811970704 3.1520691190094867 0.79784623504375629 116 198 103 0.47045841106658537 56 2455 77 2345 80 2182 86 2400
12908 -0.22646870018047663 2.5039111897024187 0.74042766770664881 78 125 58 0.25399062910955122 90 1198 70 2009 55 2137 73 2422
25891 0.25631495724807907 2.772270974821295 1.2056525213502296 148 139 84 0.36403897283351982 33 662 44 1330
12386 -0.31568387194513969 3.3725406485000562 1.668891242534094 170 181 198 1.6112765023890385 79 1831 88 2601
25369 0.31169024583400001 2.8148258049910191 1.1159972327471412 92 112 60 0.11253720622641465 36 1086 50 1348 64 1876
12821 -0.28209280587091151 2.3262997434125099 1.0918879936912711 56 109 56 0.92294447366156396 79 354 70 347
25804 0.26590780443816664 2.6212547783400426 1.7518714959199535 92 160 70 1.1462363681111394 46 69 22 70 15 41 3 43 21 32 10 55 35 61 30 59 20 37 14 54 5 46 13 49 37 47 34 56 8 43 26 38 9 38 23 32 24 28 2 33 6 38 18 29 17 21 27 16 50 20 36 27 33 36 32 51
12971 0.061196921843696461 1.6973896910841002 1.154375664241492 62 112 58 0.41546672190648581 92 930 88 871 78 883 79 1871 100 1348 89 1726 99 1856 96 1863 95 1719 90 1663 72 1747 82 1661 71 1658 75 1526 85 1529 97 1705 94 982 87 1018 91 1004 98 1663 81 1913 68 1586 67 1380 93 1540 84 1226 74 836 49 1729 53 1422 70 1609 73 1564
25954 0.3885772357733549 1.9649666376322172 1.0387634458437958 44 87 47 0.8447234235478347 44 168 64 88
8448 0.28733103220370632 3.1776228057661111 0.63864076322010255 116 181 90 0.89180595872527091 81 108 68 41 67 29
14875 0.69808612265197112 2.7306003266964005 1.8481086654213796 251 251 249 1.3917161003135163 80 1784 57 1297 39 1627 38 627 40 996 35 770
11666 -0.1181560100762838 1.7253147433209002 1.1017278895222948 155 156 111 0.27925396456138862 79 263 92 256 88 331 78 228 70 433 55 410 73 319 63 261 62 361 66 364 48 341
15048 0.46410677281687213 2.9886642336076945 0.85841753827308886 244 244 131 0.22195654772607798 57 1675 29 907
11839 0.66029709971875328 2.7264490012843474 1.3556405590688445 115 128 77 0.38428009637145516 79 2697 92 1541 88 2445
24822 -0.35723938902058372 2.9966724091691996 1.3754879432475482 224 209 174 0.71247718782201563 2 513 33 1501
7987 0.22857539094128088 1.5363610660045723 1.251415532275828 44 84 53 0.91409919952049778 97 1742 98 2021 81 1939 49 1756 77 1580
20970 0.99946384062569449 3.0340928747317131 1.6349630790700362 1 0 0 1.324089719099141 42 345 30 343 37 854
14414 -0.26650320829467178 1.5849853773914995 1.0543797542366791 16 15 12 0.39211483738060049 74 1464 61 1620
11205 0.32372688666551408 2.0018785346240038 1.3473824662509619 71 141 79 0.3171476449082391 68 471 67 483 77 243 87 723 91 369 98 326
24188 -0.29722475384167285 3.1178740944475414 1.6765050020128371 85 91 100 1.9727180081597269 3 522 46 539 43 489 9 398 21 330 4 776 12 597 40 467 47 892 20 444
12921 -0.0023792952519308395 3.2526998132706186 0.61312658040481183 179 155 93 0.10683717739336422 88 2983 70 2358 73 2378 41 1704
12399 0.64658782185930608 3.4169019722900118 0.6863857182039671 88 78 46 0.10426370674737168 92 2713 88 2790 78 2670
25382 0.17092868281897633 2.8845213274845989 1.0258634537975362 218 201 121 0.11513445904557701 36 1022 50 1381
12474 -0.42593446287599951 2.0962484755097317 1.1641489328618702 0 0 0 1.5654699773471292 79 3188 70 1361
7540 0.4836785364437759 1.7742396410408974 1.4848314592654057 154 154 169 0.23521188135222371 87 2437 97 1760 91 1737
20523 1.0276133491016746 2.9974089736636662 1.5875946478105547 149 133 119 0.084512474240798774 42 873 40 832 12 868
13967 0.4903014768507053 2.7279752094833696 1.3646425081980547 153 154 106 0.27638404841023595 73 1030 63 1825 45 1353
10758 -0.12322329396177273 2.7479100753306032 1.4644350773983719 184 174 98 0.28509019330013025 74 2006 56 1867 83 2599
8131 -0.061213727841065657 3.9697770187440593 0.88016622612417839 0 0 0 1.5812291538052221 89 38 75 51 85 33 97 42 87 154 91 197 98 108 80 755 94 290 77 844 81 95
21114 1.2522532532078785 3.1716128737090004 1.132647291406873 119 95 71 0.28340799636055747 42 761 30 1091 13 987
14558 0.17712105980467024 2.8715654920940996 1.0611332646322826 190 173 97 0.173273763293988 52 1100 58 565 29 1417
11349 -0.32658167929887444 2.2099987428057091 1.1396877887981651 109 93 62 1.2953930021212623 77 743 80 696 52 666 61 189
24332 -0.37524760311793992 1.7361489835500727 1.0318449823340492 230 211 165 1.6781484821962758 8 451 6 387 18 93
12494 0.22963108111512001 2.7326991222603034 1.3394832005203008 67 103 49 0.35401602528695381 88 1028 95 839 78 1029
25477 0.76175049782475357 2.8622184414807585 1.0882616714194613 86 142 65 0.34058170005474997 24 468 54 358 44 415 33 287
13987 -0.23127924728538271 3.102071099882648 0.88188240423482411 63 109 42 0.086294900989739895 55 2235 63 1967 41 1712 62 1849 66 1538 48 1897 65 1161
10778 0.49016413325804103 2.6639265847587899 1.5778343318959038 129 131 82 0.54612240944788226 74 1179 56 2262 83 1106
12091 0.37596369473899865 2.6314898795568165 1.7293419649005111 199 197 116 0.45800880248068648 92 95 88 68 78 82
25074 0.83259218922991041 2.8602081274628688 1.1327832222487748 131 199 99 0.038429343996400321 36 913 27 566
8650 0.32968845514379086 2.7275601673193353 1.3377320538892741 82 122 62 0.13455198007439839 87 2741 68 2631 67 1316 93 1225 84 1140 74 1132 56 1104 83 1084 61 1058
21633 0.58440520646121785 1.7785258695687316 1.5493049856161918 0 0 0 1.265977697855295 16 1009 42 984 25 215 21 690
15077 -0.32294980080984131 2.3602687181199058 1.0058009946952204 132 159 92 0.88119023083769932 57 754 29 1115 39 1606
11868 1.2615073073035028 3.1665068695423857 1.1728458589782897 215 200 171 0.24829679897486534 79 1222 92 1772
24851 1.0689020568065879 2.8987946131533997 1.0502893878564197 191 232 144 0.32069072257860787 17 20 27 13
12166 -0.44071545996251987 2.00667284498443 1.1110091938333244 0 0 0 0.79034998903064946 92 852 88 747 78 813
25149 0.4669161383002397 2.3681795935136671 1.7102666859265094 255 250 194 1.1524445373010193 36 55 50 220
13659 0.094187894839931258 2.7424215791964803 1.3827758070465981 65 107 46 0.32576041921580412 55 1012 73 999 59 1353
4023 0.13837764216528073 3.1224458870915432 0.70987484993993477 181 188 108 0.66689610130470311 79 1846 90 2826 92 1808
17006 13.995898202726773 7.8479058159224913 12.461903609114554 0 0 0 0.6733509794382051 62 591 45 321
10450 1.1156336248783054 3.0366848224039997 1.0153540135196846 89 154 82 0.11623326097036391 68 2868 49 2513 77 2222 52 2016
12950 0.68837460264037664 2.8306580357452025 1.1378146282361836 213 211 133 1.8382915427633515 96 1180 95 1254 79 1303 92 547 88 730 78 308 78 1045 70 2321 95 682 79 336 92 334 88 309 78 259 63 358 59 965 45 397
25933 0.0020726610447144569 3.2516577397167552 0.60440917547504658 92 132 62 0.33393584566646362 54 1694 44 2141 33 1330
12915 -0.41159713583736929 2.3640229994297592 1.2451931224824329 205 192 150 1.4397789486406343 95 1301 70 2242 65 1133
25898 0.1349633158646745 2.8536225852494357 0.9692291042454837 170 166 97 2.4370864440451658 54 1502 44 1479 64 1820
12256 -0.1093471741406236 3.4806353462921247 0.75662226260872778 191 166 132 1.4848359559896565 92 452 88 1692 78 957 70 1449 55 1371
25239 0.49114991791375612 2.8534629930843716 1.0462106014620973 81 124 64 0.21056603537241844 36 657 50 796 64 1121
9038 0.47114586903512057 2.6556333086462058 1.5629392611096167 120 126 78 0.21269991634711549 68 2620 67 2154 84 1969
15465 0.93275668227604436 2.8436391473890037 1.2005312498266283 146 122 92 0.86097188824730508 41 551 62 769 66 534 48 751
13115 0.54193447663922978 3.1004507794019371 0.73909731476313612 215 229 123 0.028713748307170408 77 1842 52 1785
26098 0.49838812152195516 2.8307416223522703 1.1044592863241818 142 149 87 0.37562518431753927 51 53 32 54 69 84 60 81
9906 0.3334072419721173 1.4951129502221858 1.2951532185136445 223 228 243 0.59345298676762459 87 2187 91 1402 98 2024 81 1938 67 1379 93 873 68 1787 84 1248 89 1729 96 1781 99 1419 95 2083 90 1847 72 1484 100 1415 82 2857 75 2673 85 1561 94 1345 74 1502 53 1754 56 1355
22889 1.1580352086450594 3.8142832201714629 1.396487364389341 0 0 0 0.70988835803831041 20 661 31 626
12930 -0.1051151100885598 3.2478214605144378 0.67039589780143327 181 177 98 0.94853498911354328 79 2934 70 2488 73 1428 63 1962 41 957 62 1142 66 1902 48 382 65 580 45 1954
25913 0.60682468297082526 3.0891204912882433 0.7623663655279076 112 172 85 0.44321002671981075 54 1085 44 1619 64 1009
12221 0.96642878892382611 2.2908970898217254 1.22314335029196 3 2 1 1.7687559111089217 92 3128 88 1424 78 528 73 1232
25204 0.058137654825306868 2.9884212350321535 0.87431980089386996 197 187 112 0.35921108835019216 36 377 50 460 64 509
8069 1.0436053654361788 3.1054828423495771 0.91249553998587762 208 205 114 1.0953266531637194 87 2980 97 2891 98 2827 81 2590 49 1231 53 610 77 1074
14496 1.076525173757686 2.9890683514851126 1.0474506858719279 78 130 69 0.93870573697303417 80 1008 52 1269 86 515 61 816 81 579 68 487 67 1049 93 570 84 573 74 547 49 526 56 878 77 497 80 489 83 524 57 1527
11287 0.081540675051431991 2.4821043991650389 1.4741536801926796 182 185 197 0.95173085984339845 77 205 80 206 52 290 58 334 86 573
12524 0.60949023047365369 2.1062399481151202 1.5079931467622845 192 167 146 0.46406088593074513 88 1411 78 1629 73 1267
25507 0.3779438723506563 2.7974080635205678 1.1383972628023473 104 110 68 0.18239885167041567 33 412 54 543 44 949
7590 0.32594051767589172 1.6939768062994656 1.3026680612440136 60 109 58 0.22233806281823076 87 2043 91 2106 81 1816 68 1933 67 2298 84 2212 74 1949
20573 0.75152280227068102 2.8243310743640708 1.7923434092225852 254 254 254 0.12007098349234947 42 1014 40 988 31 958
14017 -0.21029013607238406 3.367858375435941 0.89258100738681956 86 58 32 0.87380510825351521 70 2502 63 2106 41 489 62 1772 66 1132 48 1717 65 1367 59 1694 28 472 45 1839
17235 0.91669085887414836 2.3665541261894765 1.116660892958077 126 111 81 0.062566553213591225 45 1313 28 966
4252 -0.42742299178644588 3.5211134977554273 1.8199206629342946 122 118 117 0.56860727314473769 100 1067 72 938 82 900 71 892 53 764 85 2599
10808 0.69990474151380278 3.1178852984108167 0.7572103142044182 108 113 68 2.7789593727498527 81 2796 68 1424 49 2036 56 2372 93 1726 56 2371 81 929
15510 -0.45050076774578868 3.13015873173961 1.6398558319948671 76 52 29 1.1481293211004593 82 2489 62 1058 66 1828
9496 0.47849390809082509 2.648780323540707 1.5784551006788834 68 113 60 0.11578522267163099 67 2178 93 2509 84 1972 74 2027 56 2235 83 1101
22479 0.84953874958591702 2.7283978487423846 1.4469743785555309 168 162 98 0.30084643334253142 14 1016 5 1003 13 623 37 920 34 833 8 409
15923 0.27444061124361585 3.4698767822717591 0.65574727877839367 167 155 147 0.6128810126980867 41 1228 62 1704 66 834
12931 -0.25962484694148152 3.4687358539204434 2.1537108486209697 0 0 0 2.9068260751547634 82 898 90 990
25914 0.65247586794421952 3.0659652868966512 0.79774529893877399 100 167 79 0.66594122624776153 54 1170 44 1629 64 1005
11940 0.56195289792751613 2.9651600023845712 0.89691719188427466 76 113 57 0.020313763718220999 79 2447 92 2449 78 2753
8499 1.0435247315780509 3.0117095099377647 1.0027871857218122 75 131 64 0.47357566498495413 81 908 68 718 67 1036 93 998 84 1479 74 918 49 835 56 863 77 768 80 491 83 730 52 711 86 828 61 1500 58 2001 57 898 29 418 76 954
21482 0.68806106501222242 2.8321630917727139 1.9903718101764503 255 255 255 2.0160164679098913 12 498 30 795 31 473 35 587 4 845 10 777 14 709 13 562 37 695
14926 0.08756028978033846 3.7402333632667299 0.80542797944735445 0 0 0 1.8059404437032236 72 1656 89 935 90 2006 97 1850 75 810
11717 0.73648237097565583 2.65889882244293 1.6509893914147638 62 93 42 1.1693147419650789 79 502 92 653 78 600 73 495 63 1285 45 511
24700 0.19397221116614544 2.7983378960620886 1.1900772208644157 143 137 82 0.13888375166237638 24 572 33 618
12614 0.7145147360648556 2.8028162177693683 1.2137442326282508 214 204 126 0.09679040249304495 79 2638 92 2550 88 2403 78 2455 96 2577 99 2594 94 2510
25597 0.45569524859604238 2.7601497926608918 1.2496924994315131 150 140 91 0.12448090298518806 33 843 54 988 44 954
9396 0.62659565192301669 3.2033099391752611 0.67671585738578155 104 185 89 0.22745215671460711 67 1583 93 1717 84 1396 74 1619
15823 0.53350861585323528 3.2701483630673942 2.3223024767852203 196 173 133 0.25858637480634628 41 322 62 245 66 424
13649 -0.19950695584727324 2.9991024734842009 0.98391562209663563 50 81 34 0.20604655590117998 70 828 73 858 63 530 59 428 45 425
10440 1.2239386899322708 3.2843736239919061 1.1545145371507075 121 98 79 1.8349650725679179 81 2647 49 2366 77 1368 80 1291 57 1047
12940 0.25362075081565882 3.2131360154332618 0.61764068270612471 102 167 77 0.00013496880576799927 79 2779 70 2642
25923 0.5309384227924695 2.9265556536235851 0.94990125662226121 70 109 56 0.45397938041092178 54 1447 44 1772 64 1550
8343 0.40900905805057913 2.9512273220608507 0.90726487320009586 114 169 85 0.15953653663089937 98 2346 81 2152 68 1439 67 1853 93 2308 84 1642 74 1271 56 1208
14770 -0.23133482651271001 2.9927626270808636 0.88799605451633346 1 1 1 0.044656092691918531 58 54 57 45
